# 3D point list with one line of data per point:
#   POINT3D_ID, X, Y, Z, R, G, B, ERROR, TRACK[] as (IMAGE_ID, POINT2D_IDX)
# Number of points: 360, mean track length: 5.5972222222222223
1 5.5009388177215728 6.0521616922991885 35.095771208873558 45 45 45 0.31100343567860922 2 183 11 93 8 143 5 156 4 57
2 -3.2920325035343718 6.5236741395680227 34.376344543798616 44 44 44 0.52295673399649789 2 158 11 114 8 76 10 83 7 110 4 73 9 219 12 189
3 -0.28729670078973041 9.710799412535895 30.809899031675371 121 85 49 0.12576419213610668 2 256 11 197
4 8.0304060888854298 6.7495039826563374 34.186853342879949 43 41 42 0.18361809692692108 2 233 11 234 8 227 5 226 7 258 4 233 9 289 12 278 3 254
5 10.426379454872677 8.7345222671254135 32.489045900204104 133 96 52 0.44573633351136593 2 196 11 245 8 174 10 183 5 176 7 204 4 173 9 236 12 130 3 189
6 5.6325621299949313 9.407582055130904 31.704573109753955 105 69 45 1.7536719759388795 2 253 11 252 5 242 3 201
7 4.4841428329436264 9.561593409926612 31.943205427229277 124 85 54 1.4919191171931783 2 201 11 253 8 248 10 261 7 277 4 248 3 204
8 5.2925745294319775 6.0654199707508161 34.926207888165195 15 15 15 0.45302490862897582 2 224 11 283 8 218 10 227 7 243 4 217 9 281 12 263 3 241
9 4.6951430731585999 7.6968876582822956 33.796316526643331 181 144 92 0.3024404725169883 2 241 11 302 8 236 8 275 5 284 7 266 7 344 4 240 4 292 9 295 9 355 12 286
10 -5.342433815132404 8.5061201316844866 32.801088763839509 168 132 84 0.62387060448785048 2 296 11 304 8 280 5 287 7 347 4 294 12 344 3 323
11 -5.3184636496724442 8.6156901848768488 32.487855625265077 179 141 92 0.51898783032627871 2 297 11 305 8 282 10 317 5 288 7 348 4 296 9 361 12 346 3 324
12 0.26279807440010838 9.1217323547400131 31.523811863262654 145 108 60 0.54927464240135415 2 300 11 313 10 259 5 241 7 351 4 246 12 295 3 198
13 10.407882549433495 5.7643804472949354 35.441426482746849 15 15 13 0.46844351626514213 2 273 11 356 8 259 10 290 5 265 7 321 9 341 12 322 3 307
14 5.8731274027463884 6.0814087746446379 35.157604298790559 21 21 20 0.60787791741012542 2 396 11 438 8 374 7 580
15 -1.1347853473768916 7.7827060453664849 33.950655938557517 199 163 112 0.24809580588068877 2 418 11 456 8 394 4 438 9 519 12 403 3 465
16 10.44567212219971 8.8535589042085725 32.361728127094217 171 136 94 0.55295927208016837 2 346 11 459 8 332 10 447 5 519 7 426 4 442 9 360 12 405 3 388
17 -5.1005772227161641 9.68525324919589 31.092537043682324 166 132 86 0.6096019453273831 2 424 11 463 8 405 10 453 5 429 7 431 4 449 9 530 12 410
18 11.004781374183654 7.6974256688319285 34.258049383578751 134 91 45 0.42549269142679991 2 472 11 533 5 515 7 593
19 8.675918778126599 7.8949112845196421 33.959153175683724 127 84 41 0.74666884899892705 2 417 11 537 8 452 10 508 5 516 4 530 9 518 9 607 12 487 12 562 3 530
20 -3.9033492647812418 9.0859075549834039 32.548530411406716 203 169 123 0.48641683578013456 2 484 11 541 8 457 10 516 9 612 12 571 3 537
21 9.5541143527376207 7.7426253755330618 34.004412301089644 135 91 44 0.39675563833044503 2 532 11 600 8 497 10 563 5 593 7 670 4 600 9 676 12 628 3 597
22 9.6448579602595004 8.3275314353871259 32.842173469731634 138 100 53 0.55916606115079071 2 533 11 603 8 498 10 565 5 595 7 672 4 602 9 678 12 567 3 599
23 1.2761729721998341 8.3371266126114794 33.147824430053284 143 102 51 0.36755226462300467 2 534 11 604 8 499 10 566 5 596 7 673 4 534
24 1.2804557437689958 8.3508485384493607 33.2036147031762 143 102 51 0.35279444873737836 2 535 11 605 8 500 10 567 5 597 7 674 4 535 9 679 12 630
25 0.63010943160596811 8.4238761668728692 33.283280366981508 138 98 47 0.25279922116482051 2 537 11 606 8 501 10 568 5 598 7 675 4 603 12 631 3 600
26 0.63013116432049698 8.424880065874607 33.285967080631409 138 98 47 0.23650865901132226 2 538 11 607 8 502 10 569 5 599 7 676 4 604 9 680 12 632 3 601
27 6.8542690095897134 8.5255575835767896 32.719195453388743 151 113 64 0.49178913625710657 2 536 11 608 8 503 10 570 5 600 7 677 4 605 9 681 12 633 3 602
28 -2.2008524876770323 8.5850872877664237 32.828181398259808 150 109 57 0.4743882672724547 2 593 11 673 8 563 10 628 5 678 4 671
29 -2.202440285996774 8.597078471523707 32.867465496305734 150 109 57 0.46185712321699185 2 594 11 674 8 564 10 629 5 679 4 672 9 754
30 8.2146983695945881 9.066118811590842 32.442298873393682 164 129 86 0.45421096459090399 2 539 11 675 8 505 10 571 5 603 7 746 4 606 9 684 12 634 3 603
31 -21.937149719798644 -42.164139845830192 101.65058941392671 222 224 223 1.0354168059059945 2 581 11 713 8 604 10 670 5 726 7 805 4 725 9 801 12 758 3 741
32 9.2947573334766496 8.8863574923191759 32.37854752774372 155 119 77 0.59754597755621441 2 640 11 727 8 625 10 687 5 740 7 825 4 673 5 680 12 771
33 27.58058609237894 -21.88751868885744 81.246993843414316 200 176 140 0.89628257169074366 2 674 11 789 8 719 10 773 5 825 7 913 4 817
34 28.146136023670785 -22.348685012223289 82.809061891703024 200 176 140 1.1247763765862555 2 673 11 790 10 774 4 818 9 916 12 866 3 847
35 12.155948723576714 5.7184141152185788 34.751058449937233 70 72 71 0.61728579098663772 2 132 8 37 10 43
36 5.2304879074902528 6.1638328005884553 34.66300921567035 46 48 47 0.18095576638479596 11 100 8 49 10 57
38 -0.97949543349803114 6.5557344120428329 34.245129765030939 41 43 41 0.24846208467145825 11 116 8 77 10 86
39 -9.3547828125355625 6.6749881326507667 34.5725071445476 51 57 57 0.72181131851583702 11 238 8 155 7 194 3 180 9 290
40 11.718838646028917 7.6746983105325963 33.900765442955027 139 107 58 0.37443496221126515 2 192 8 165 10 178 9 146
41 -8.5075629200663112 8.8555871337468162 32.321639265451232 162 130 81 0.32930327798565884 11 190 8 177 10 188 12 213 9 239 3 192
42 -10.925333739243872 9.0747884822698914 31.920525868304342 148 112 62 0.47539288156813525 11 251 8 180 10 258 5 240 7 273 4 178
43 0.90662260581082632 6.2483025016629394 34.675732509493571 7 9 8 0.39608178531178423 2 226 8 219 10 230 5 220 11 229 4 221 9 212 3 243
44 -3.2678055516400768 6.4228201394072268 34.48315451675041 5 5 5 0.3288170763498735 11 289 8 224 10 237 5 276 7 253 4 228 12 274 2 234 3 249 9 347
45 4.6949891015888703 7.6942306975188028 33.795957690725963 177 143 97 0.32566921395039322 2 240 8 235 7 265 4 239 9 294 12 285
46 7.2653331237223719 8.1050063552526783 33.972660746927929 113 79 33 0.34300662956098904 11 243 8 237 10 247 7 267 9 296 12 289
47 -6.2650590097826093 9.1781464349655177 32.334464518532393 206 171 127 0.59916926900729317 11 311 8 242 10 255 10 321 7 428 4 298 9 365 12 409 4 447
48 1.3938554408175314 9.165022400799387 32.074667335917653 128 96 49 1.0702686288776646 11 309 8 243 10 256 5 293 12 221
49 1.3938554408175314 9.165022400799387 32.074667335917653 128 96 49 1.0702686288776646 11 310 8 244 10 257 5 294 12 222
50 11.666281985821877 5.7509427083931071 35.33333580642654 25 26 28 0.87853837561550974 11 281 8 258 4 277
51 2.6825501929130513 6.2199516353187629 35.013395754634644 8 9 11 0.43405531145177739 2 281 8 264 10 295 5 269 7 328 9 345 12 329 3 311
52 3.2087364944478551 8.6108455497780696 32.945761368877235 159 126 81 0.41683977727657356 2 293 8 279 9 302
53 0.59514603274750255 8.7249446311674763 32.286234413955931 163 130 85 0.54304998154547168 2 347 11 306 8 283 10 384 5 290 7 349 9 363 3 326
54 2.2915217185628447 8.8592346852566664 32.019795731661574 161 131 81 0.22929489274437623 2 348 8 285 10 319 5 291
55 2.3161639768616915 8.9276770967505428 32.278995205073343 161 131 81 0.28836283529263002 2 349 8 286 10 320 5 292 9 364 12 348
56 0.8192618186923204 9.0925828911642679 31.680287381923417 143 111 64 0.14400736924517413 2 299 8 289 10 324 7 350 12 351 3 329
57 -0.47363534643934896 9.4503480265946269 30.713800887295225 153 120 80 0.35416837166476556 2 304 8 293 10 328 4 303
58 -2.43665576953103 9.6729017405682463 30.827600766939661 164 136 98 0.8315838895640274 11 377 8 294 10 329 5 342 7 355 4 251
59 8.5207698446988314 5.8527369750211724 35.151059945110283 19 21 20 0.40024560773473455 2 274 8 314 10 365 5 327 7 324 9 400 3 308
60 3.230287595899243 6.19367831265353 34.841059460481524 9 10 12 0.30212459759708998 11 360 8 315 10 367 5 392 7 492 4 345 9 485 2 397 12 455 3 443
61 -0.87744310903981204 6.3368207508216781 34.662384454321 11 11 11 0.30753856071229196 11 362 8 317 10 369 5 328 7 408 4 346 9 407 2 333 12 387 3 370
62 -5.1955431093451603 6.6071220470955252 34.533025238085528 11 15 14 0.30555897569231399 11 292 8 320 10 371 5 331 7 411 4 351
63 -6.9644073999057063 6.646664085360257 34.308606830643271 15 17 16 0.43880001862191742 11 367 8 321 10 373 5 332 7 413
64 8.9758441352381677 8.1896683790842246 33.205513009398651 149 117 70 0.50462600487250864 11 375 8 330 7 345
65 -7.926328837059013 9.6991770963296275 30.518821497224007 173 142 96 0.56507947520882662 11 378 8 338 5 343 7 522 4 304 10 330 12 502 3 393
66 4.7792018321662342 6.0342780029512681 34.471168936440975 13 14 16 0.92407339220114304 2 461 8 375 10 416 5 391 4 412 3 517
67 1.4528184155649 6.3038106699077172 34.89231589402317 19 20 22 0.5638024921635173 2 399 8 376 10 418 5 393 11 439 7 494 4 413 9 486 12 456 3 444
68 1.4576968375483441 6.4903114599460743 34.015019448887877 87 88 90 0.55283357542051259 2 405 8 379 10 423 5 399 7 499 9 492 12 388 3 450
69 -4.5757527314970456 6.5332993176032863 34.274027173915854 23 25 24 0.39281335370718107 11 443 8 380 10 425 5 402 7 500 3 371 9 410 12 463
70 -5.7614017390600285 6.5667191282281676 34.12322155000232 11 12 14 0.33663707771764323 11 444 8 382 10 428 5 403 7 501 4 419
71 4.2775207294114912 8.165695166328728 33.256949476523481 126 91 45 0.31600696218580338 2 419 8 395 5 424 12 489 3 466
72 -4.8732043677247914 8.6442883353961459 32.980166071203392 190 156 108 0.73824099177147351 11 376 8 398 10 381 5 340 7 425 9 523 3 387
73 -4.8458954258143114 9.0982200669999926 32.483830879953658 203 169 125 0.52834269136027801 2 423 8 401 4 444 12 497
74 -5.8189028293883149 9.099447143577656 32.069962364415538 207 174 131 0.29656541625182004 11 460 8 402 10 387 7 520 4 445 9 430 12 408
75 -10.878243722860416 9.5425178012676586 31.770291328453851 220 187 141 0.67744547510528452 11 462 8 403 10 451 4 448
77 12.04194187807914 5.6326244003562573 35.320350467711663 23 22 27 0.86877952460635954 11 509 8 430 10 481 5 494 4 593 3 514
78 2.0404118336081858 6.3351525286744188 35.249493586476021 15 16 18 0.9335487120044218 2 463 8 435 10 486 5 499 4 414 7 493 12 550 3 519
79 -8.6486397825849401 6.7280606060045978 34.040279742503472 18 22 21 0.53034954348558749 11 523 8 442 10 432 5 406 7 416 4 425 9 500 12 469 3 454
80 -11.406343668903837 6.9177001132093592 33.815881016180114 22 26 25 0.25007033460728306 11 527 8 446 10 504 5 511 7 591 4 523
81 -5.7817885075198205 6.8784518846873093 33.802660697827037 64 69 67 0.38433716856525768 2 470 8 448 10 503 5 510 11 525 7 590 4 522 9 604 3 525
82 -8.2868380721621087 7.0937209109191208 34.034577513877188 50 55 51 0.99610418212219731 11 529 8 449 10 505 5 514 4 525 12 480
83 -11.659947403397604 7.1402007978323629 32.986269000146777 58 62 61 0.54397200870864459 8 451 10 507 4 528
84 -1.0963288183695348 7.8288641736812012 33.967570343690277 199 173 124 0.068129753914169588 11 538 8 453
85 -5.1276286167067742 8.8112320063344765 32.412140223783062 139 102 50 0.36771557226188939 11 609 8 455 10 515 2 540 7 597 9 683 3 536
86 -5.8800993136491009 8.9804547331789486 32.742957119654754 137 100 48 0.87378812763428215 2 483 11 540 8 456 10 572 5 522 7 598 4 539 12 570 3 604
87 -20.161669786503214 -41.634423545501953 102.56915441663703 173 179 179 0.79805221714520758 2 439 11 492 8 477 10 541 5 464 7 549 4 482 9 557 12 533 3 495
88 -19.917875080574934 -35.300634213942828 97.935652070964892 149 155 155 0.6681155502093894 2 364 8 480 10 546 5 573 7 645 9 653 12 615 3 578 11 583
89 -13.657419500464263 -15.611063853891014 72.635308872227199 85 87 84 0.50899706622001462 2 443 8 485 7 659 5 580 10 549 9 661 12 621 3 506
90 7.6516118793742356 6.0826011927085339 33.86340722475623 55 57 56 1.3701359722662798 11 595 8 493 3 596 9 595
91 3.7304653678561941 6.5467071925165401 34.812740017694971 74 75 79 0.76155036481969574 11 598 8 494 10 560 4 515
92 -14.943866689076522 -28.068540052934143 87.023327765701367 25 28 30 0.78390823471897164 2 513 8 554 9 748 12 695
93 -5.1446818415533544 8.815827500713306 32.505567805702533 138 101 49 0.35632379570942602 2 595 8 565 5 602
97 -18.118946220052042 -29.987514584130022 88.778655293293099 167 176 175 1.1689721430867064 2 583 8 607 10 677 5 731 7 813 9 806 12 763 3 673 11 663
98 -16.990883714181233 -21.661459850954966 72.130349438077843 30 31 32 0.65839419652985309 2 586 11 724 8 611 10 681 5 734 7 815 9 810 12 766 3 751
99 -13.473555056024503 -17.618870233686497 75.652189040877147 26 25 21 0.35460894348572869 2 588 8 617 9 811 12 768
100 -13.473555056024503 -17.618870233686497 75.652189040877147 26 25 21 0.35460894348572869 2 589 8 618 9 812 12 769
101 5.4404795664734982 7.6565602045168744 34.25288162091617 177 144 99 0.22850625052804172 2 591 8 624 10 626
102 0.3114700081518828 9.4735006188636994 31.217537719874258 162 133 91 0.51720307977248792 2 641 8 626 7 748 12 706 3 686
105 -16.118645436785485 -20.290266380874794 79.316829264781077 223 229 230 0.60572129389411655 8 673 7 872 5 786 10 732 11 758 9 867 12 815 3 804
107 8.0461519674958897 8.1471182095257735 32.869211854903277 154 121 76 0.43836259888262019 2 244 8 276 9 297 3 265
141 -7.8978737466239775 6.2678558810201768 35.66052523380322 69 75 73 0.60114602033576692 2 107 10 62 5 98
142 -4.9878186154417481 6.5576209228002789 34.696462440753315 44 46 45 0.26874588708442337 8 75 11 113 10 82 4 70
143 -9.5187107677914291 6.9629609743829706 33.282381362670598 41 43 42 0.39514684670490136 11 131 10 177 7 261 4 165 3 258
144 1.2906023175044679 9.6283283419802217 31.371682591436681 109 75 39 0.40170264462967137 2 203 8 190 10 203
145 -7.4842239706256546 5.2415136385904431 37.10283861563498 36 38 37 0.41263411496949748 11 280 10 222 12 254
146 0.33946202083542909 6.2894695777272025 34.78944253278474 7 7 7 0.40292079037688533 8 220 11 287 10 231 5 161 7 246 2 231 4 222 9 284 12 270 3 244
147 -8.062301461136256 6.4749543450850977 33.793693754038607 71 75 74 0.39932391504576226 11 294 10 240 7 192 4 159
148 -5.063113823385299 8.4319256494050041 32.881453182777783 173 137 89 0.4929130869762533 11 246 10 250 4 242 3 188 8 238
149 -2.8479856620529422 8.437506378855554 32.715121961164165 187 151 99 0.46272709643723009 2 248 10 251 9 301
150 -9.5975408671689628 8.976515259769112 32.210852556494807 162 127 74 0.55188814094077687 8 179 11 249 10 254 5 238 7 271 4 244 9 242 12 291
151 0.2558196855208108 9.1764397142642089 31.719233357231342 132 95 50 0.59179072470976979 2 301 10 260 7 352 12 296 3 199
152 4.0686720039204136 9.4475713789329099 31.4323269768066 125 89 58 0.58721298380040776 2 254 11 254 10 262 4 180
153 6.5789657971859556 9.2512276799375979 31.879106055672334 100 63 36 0.6780270348698223 11 308 10 322 7 274 4 299 9 304 8 245 12 292 3 273
154 0.81888574604937014 9.0864394174235592 31.660078097858339 151 115 67 0.16805196922213239 2 298 10 323 3 328
155 4.741666333069281 9.3193497302661648 31.975899423345201 148 113 71 0.46833933630485702 8 290 11 312 10 325 9 368
156 0.81758601056927493 9.2072141000080023 31.348534256594867 172 138 92 0.24294549271380306 2 303 8 291 10 326 7 354 4 301 12 353 3 330
157 8.9212812288898302 6.1909692146392663 34.421403351964045 66 67 66 0.50280045198898971 11 359 10 368 9 405 2 278 12 328
158 -9.1628475185183103 6.7244190351140078 33.975065702079213 16 16 16 0.40815002676267365 11 370 10 375 5 337 7 417 8 323 4 354 9 416 12 396 3 315
159 -6.0861349231696904 8.7135737288803927 32.644854416339136 184 148 98 0.76305312132619996 2 422 10 383 7 427 9 427 12 407 3 390
160 7.814707140775293 6.5100188360359921 34.160418753439394 12 8 8 0.38750465242461218 2 400 10 419 12 459
161 7.433178076884988 6.6504900982562791 34.875944719670905 12 10 11 0.30971559669783394 2 402 10 420 5 396
162 2.2519083900486048 6.8365380584366653 34.475083565417776 11 11 11 0.48834429952080921 2 409 10 430 5 334 2 336 7 506 4 423 9 496 12 467
163 -0.64385513840340758 8.5018306384695581 32.786258720024946 134 95 46 0.33650870496595042 2 482 10 445 7 517 12 492
164 3.8807866193365474 8.4822966594978677 32.328283832014336 159 125 79 0.67011365430977687 2 345 11 458 10 446 5 425 4 441 9 522 3 386
167 7.3381175260411959 5.9145111159627524 34.816383739211538 23 25 24 1.369187884421029 2 460 10 483 7 579 4 506 9 593
168 8.0100639993659417 7.9734816702347437 34.106606454684247 122 84 37 0.72993467334416506 2 475 10 509 5 517 4 531 9 608 12 564 3 531
169 7.139810569266035 8.0001750916288898 33.911739519441561 137 101 51 0.4992908056524899 2 476 10 510 4 533 9 609 12 565 3 533
170 -4.1833659525276463 8.4353699133998941 32.886256511979845 200 164 116 0.3745995416886132 2 481 10 512 4 536 9 611 12 569 3 535
171 -0.13954252708216633 8.5300567528330316 33.158510429588297 125 83 37 0.27313965246766098 2 479 10 513 5 518 7 595 12 568 3 534
172 2.776723656700864 8.7414748137693579 32.492671490778925 153 117 69 0.6882472539839728 2 421 10 514 5 520 9 526 12 494
176 8.8874951727738392 5.8174372449148022 35.072382212003717 18 20 19 0.73187812405086239 2 528 10 556 5 589 7 667 4 505 9 592 3 515
177 -10.670874776620314 6.7863876113633648 36.147548404397284 56 60 59 0.93629711675936989 10 561 5 592 12 558
178 7.8670816228028793 7.4363307981145281 34.113642674678715 173 136 84 0.41966264430085742 2 531 10 562 7 669 4 599
179 3.7719737121795287 8.2343043916185028 33.592377077250212 129 89 42 0.4582490215886631 11 602 10 564 5 594 7 671 4 601
182 11.554081940316765 8.1892078972603528 32.993483911300039 135 99 51 0.84697222091964053 11 672 10 627 5 677 4 669
194 -1.2638266661981752 0.06465511065678714 6.2109109172900494 17 19 16 0.90354737164289656 8 137 5 28
195 7.9040113877650748 5.8803304895007846 35.302705618755923 40 41 43 0.2020639758464112 11 81 5 82 7 176
196 3.4979456039044363 6.1363484698422255 35.074997106613026 35 37 36 0.51328830660744507 2 149 5 94 9 111 12 173
197 2.3130818085855762 6.2497190683795587 35.308284560390909 34 35 35 0.28418819039972432 2 150 5 95 7 91
198 -6.4513976549928627 6.5047655166714256 34.431801090092158 106 110 109 0.30495264818726298 11 115 5 110 7 109 12 109 3 100
199 -6.4422228740058323 6.7855638569236474 33.653006340293281 84 86 85 0.20888583711165165 11 124 5 117 4 82
200 6.2768465553746511 7.4509540158901801 34.04289505087624 146 114 58 0.95450350893770441 2 166 5 123 7 123 9 145
201 -0.93259833295055672 -0.063330785717116922 3.317630006742978 74 76 73 0.78518209406157746 10 220 5 148
202 7.2093522945890021 6.283942506526393 34.479656459390888 124 128 129 0.22779852640745521 10 161 11 171 5 159 7 181 4 153 3 242 9 346
203 -12.340046637639347 1.450257321246708 42.825253073910837 72 78 76 0.26416387282283776 11 279 5 263 4 275
204 10.281486141072547 5.9324337773645963 35.1536773877841 60 62 61 0.44683723118921992 2 275 8 261 5 267 4 278
205 3.9544758749939817 6.442661592413697 34.228625346866963 64 66 63 0.62687281035346576 8 267 10 300 11 364 5 329 7 337 2 283 4 283 9 408
206 11.730871151706481 5.7252145399278085 35.280382650499988 20 21 23 0.47211323383575249 2 330 5 389 7 406
207 -3.8982855633563598 7.095611034035918 33.95086692263353 8 8 8 0.44195736238626704 2 416 8 390 10 440 5 414 9 513
208 -8.7420463498687262 9.2576561092484067 31.576657880307749 215 181 135 0.7879327641013596 11 461 5 427 7 521
209 -1.2856724651582423 -0.084634822404616672 5.3772094359540938 180 182 179 0.60304829527776582 8 486 5 491
210 11.608967958194455 5.9740673186580961 34.705631600935696 90 92 91 0.26600376027983774 2 459 5 496 7 577
211 6.7864337563792567 6.0087076247815761 35.26590571045741 16 18 17 0.77800936421756661 2 395 11 437 5 497
247 12.505352962499805 6.0531240096558703 35.05931847505186 99 97 102 0.28829382916188373 10 49 7 82 3 69
248 2.5261234078170607 6.3047453006135399 34.658793767393675 67 67 67 0.31057911542855232 8 61 10 69 7 98 9 123 3 172
249 0.31117212312089643 6.2020107335224495 33.639101851845368 42 42 42 0.2730667918902388 10 71 7 101 8 65
250 -4.3427882570576006 6.4140408752336837 34.215122410874478 43 43 45 0.27456923104500047 5 106 8 71 7 103
251 8.0493287822446113 9.2604761192350722 32.06221545146451 95 63 46 0.45321595561695738 2 197 7 131 10 194 9 153 3 197
252 0.39669418210171542 9.2977404446563039 29.59870285562458 110 76 45 0.44193233022657186 2 207 7 140
253 10.848800709351323 6.1474197556681442 34.821875433155455 66 66 66 0.26755504781296668 8 217 10 226 7 178
254 2.3918160042505572 6.5314790769178286 34.988434509100443 33 34 36 0.27589446592178635 2 186 8 152 10 166 11 230 7 187 12 184
255 4.3919254518456583 6.4453287558738719 34.272999757904806 142 144 147 0.19221541903979936 5 162 8 67 7 188
256 -1.9240626077129643 8.1675010492354989 31.868264203450494 146 108 60 0.78782662970725792 8 172 7 202 9 299 12 209 3 266
257 -2.3838403573782316 8.4287032802237007 32.754960306255391 146 108 61 0.41966564408385421 8 173 10 181 7 203 9 300 12 210 3 267
258 -8.9064462390528245 8.8953238675773658 32.348276264231032 172 139 92 0.80741802946463548 5 178 11 247 7 205
259 7.4957263740380302 9.0584616075138893 31.50530742233035 98 64 39 1.260352890527999 10 116 7 207 12 133 3 195
260 -0.84955828566806424 9.9201726029733788 31.243646448488853 135 101 66 1.1359899956852497 8 198 7 211 4 183 12 231 8 197
261 3.825855554459376 6.1711959555677334 35.042520882693388 8 9 11 0.28033305648355195 10 228 7 244 8 262 4 279 11 284
262 4.554220190379433 6.2089935659361055 34.914900741753598 16 17 19 0.16633852683476374 5 268 8 263 10 294 7 245
263 -3.7331765511511614 6.3969073683439674 34.443253182006373 40 41 43 0.43226353022367042 2 286 5 275 7 252 3 248 9 216 12 187
265 8.0375339644371628 6.7599258712222605 34.220913753669883 49 49 49 0.22518210351237272 11 233 7 257 4 232 8 226 12 277 10 170 3 253
266 -3.2403728598607402 6.8347130097880529 33.888827152047973 68 70 69 0.20205006813846929 8 270 7 260 10 305 3 185 9 228
267 -9.1061043808108035 6.8448065248407506 31.352799339231375 14 14 12 0.11666410808949425 8 274 10 245 7 263
268 3.481669156033353 8.2794313620868039 33.13897706321351 113 76 34 0.35350691028807024 8 170 7 269 4 171 12 207 3 187
269 -6.8471875758695733 8.4561113214762091 31.276794081533083 181 143 98 0.80808309050223925 10 252 7 270 4 243 3 271
270 7.1117405668615588 9.1694913857674099 31.780870561891192 87 55 34 1.0171676550514315 10 193 7 272 4 297 11 307 9 244 12 219 3 196 3 391
271 5.0233648011649343 9.3886318532785857 32.207652592404372 140 106 63 0.18897771700668045 11 250 7 275 4 245
272 -0.86736306477747704 9.7130197973751358 31.305503942451345 154 122 84 0.37205245716854601 8 249 7 278 10 263 4 249 12 298 3 275
273 11.4826436311339 5.7745528991253767 35.804257551722038 10 12 11 0.1855643638372258 10 289 7 320 8 257 12 258
274 10.789683928762672 5.7081534135289376 35.111055478748384 14 16 15 0.43428669491174116 5 266 10 223 7 322 8 216 12 320 3 366 9 398
275 -1.4909194443737084 6.3630826306353612 34.654414852156485 11 9 10 0.36707787954792792 5 273 10 296 7 330 4 226 11 231
276 -1.4941756521486222 6.401879493693106 34.901774425941106 11 9 10 0.3099679955884076 2 285 5 274 10 297 7 331 9 286 12 273 3 247
277 -2.9559607431232999 6.8042300389698323 33.927121329678684 64 64 66 0.076325787026535155 8 324 7 341 3 378
278 3.5878018546934203 8.3807798414308667 32.938779052241522 193 160 119 0.077531071102392671 8 331 7 346 12 342
279 7.2906833303577985 6.5236257026541544 34.421732941690138 13 14 14 0.76157523149632356 11 363 7 410 9 409 2 332 12 331
280 0.77588902222355038 6.7519971728948631 34.971841404294274 95 96 95 0.51384660928779113 2 335 8 381 7 412 5 401 10 427 4 420 12 334
281 -4.3061028469943921 7.0453991258542183 33.787458951709425 8 8 8 0.1114990796627584 8 326 7 419 3 381
282 -5.8651773699896541 7.1998173138073573 34.041654466320722 7 7 5 0.296778561947729 8 328 10 378 7 422 4 358
283 -4.57239032436825 9.614146038156596 30.868839643326083 164 131 90 0.30029392247087328 5 341 8 337 10 390 7 430
284 6.7912605225943805 6.0080103030626777 35.271527186505082 15 15 17 0.40168468538083346 10 414 7 490 4 410 9 402 3 367
285 4.2872189670980063 6.1797424010992179 35.127745680968239 12 13 15 0.5212657092907419 2 331 10 485 7 491 3 369 9 403 12 327
287 -2.7232961703828478 6.4327206170206486 34.542486925456188 11 13 10 0.34627661737105686 5 398 8 377 10 421 7 496 4 348 9 489 12 461 2 404 3 448
288 -3.9982989829673063 6.5532607822299882 34.695584493788182 10 12 11 0.30469995452463594 5 400 8 378 10 422 7 498 4 418 11 441 9 491 3 451
291 8.0345843719893111 8.0049842848051043 34.114203324048148 113 77 35 0.41015358609491265 10 443 7 516 4 439 9 520 12 488
292 -1.5882940408640094 8.9329640879177603 31.90183952048633 169 135 92 0.37247468909802534 5 426 8 400 10 449 7 519 4 443 9 429
293 9.7412639348630492 5.7580184381543384 34.985969560030888 13 15 14 0.56220052041353397 2 457 7 576 9 591
294 6.110803377301818 6.406535348976016 34.906172341106689 87 91 92 0.81160079272192309 8 436 10 487 7 581 4 509 9 597
295 2.6285858772212833 6.5080792615176826 34.479641061783646 59 60 62 1.1690869564095445 2 465 5 501 8 495 10 491 7 583 4 513 11 596 9 600 12 554 3 521
296 1.9286077561729928 6.7781607372917652 35.477119996788964 63 65 64 0.51312324416066379 10 493 7 584 12 555
297 -2.8466980695218234 6.4018597728327116 32.17132390948079 56 55 59 0.79405474311645952 5 506 8 443 7 586 10 498
298 11.628360992521536 7.6575552856492459 34.455388207157405 125 87 41 0.23944842379465017 10 506 7 592 8 450
299 -9.3086749182469699 8.5710451110717312 31.687477187830734 211 180 136 0.46776144869625502 5 521 8 454 7 596 4 538
300 -19.493837255126412 -16.147687471135303 72.959641414257931 26 24 25 0.63820055666263309 5 578 8 483 10 547 11 588 7 657 9 659 12 619
301 -19.493837255126412 -16.147687471135303 72.959641414257931 26 24 25 0.63820055666263309 5 579 8 484 10 548 11 589 7 658 9 660 12 620
302 -34.659117026918921 -136.74080771451457 229.78722014912503 41 38 61 0.40676568596514506 2 566 5 775 10 718 11 748 7 794 8 662 4 772 9 852 12 803 3 793
303 -34.65911702691897 -136.74080771451477 229.78722014912537 41 38 61 0.4067656859651434 2 567 5 776 8 663 10 719 11 749 7 795 4 773 9 853 12 804 3 794
304 -62.4462744367707 -137.61730059894745 232.02019837760744 38 35 54 0.39266235393208493 2 568 5 716 8 599 10 664 11 703 7 798 4 713 9 795 12 753 3 733
305 -47.427632941835888 -151.20672377711034 223.90303779823444 9 8 10 0.62003928823299859 2 658 5 767 8 651 10 708 11 767 7 851 4 763 9 842 12 792 3 781
306 -60.509256884844817 -150.22109734679157 223.34162244210725 14 9 14 0.6825273475057918 2 621 5 771 8 654 10 754 11 768 7 854 4 766 9 847 12 798 3 786
308 -40.473087982766671 -141.50697328808434 225.47667628857053 145 143 181 0.37885840115901293 2 663 5 813 8 704 10 762 11 776 7 896 4 803 9 905 12 847 3 832
312 -24.20442909426874 -138.16775856662511 228.96592950560816 67 65 102 0.34131224698803131 2 429 5 549 8 468 10 531 11 563 7 622 4 565 9 636 12 595 3 560
313 -29.536050234740255 -142.46249708831925 242.96596315643868 136 133 162 0.33827956680620508 2 432 5 550 8 542 10 605 11 566 7 624 4 568 9 637 12 596 3 561
314 -72.164703409327728 -144.37395040253318 245.96492985031949 141 138 165 0.56912991311672712 2 501 5 553 8 543 10 606 11 641 7 625 4 570 9 731 12 680 3 564
318 -49.180457222460049 -165.4528416009193 229.97573208982911 119 102 95 0.95069378912768487 2 493 5 636 8 527 10 591 11 626 7 710 4 635 9 718 12 668 3 641
319 13.264554389909915 -156.28383073513257 239.89525079524108 166 161 191 0.45090356610367455 2 564 5 637 8 532 10 595 11 627 7 711 4 636 9 719 12 669 3 642
320 13.264554389909915 -156.28383073513257 239.89525079524108 166 161 191 0.45090356610367455 2 565 5 638 8 533 10 596 11 628 7 712 4 637 9 720 12 670 3 643
321 -57.017161469188451 -153.3597901989981 235.04138397247544 188 187 221 0.44851970767884003 2 561 5 641 8 595 10 661 11 633 7 720 4 638 3 648
322 -70.56303992680256 -181.50240338501021 233.30247958054559 207 68 77 1.4597674618178484 2 620 5 765 8 695 10 750 11 738 7 847 9 839 12 790 3 778
323 6.0372034066583344 -147.5980423189167 221.49506924378809 29 29 41 0.74142073945427067 2 622 5 772 8 655 10 709 11 744 7 855 4 767 9 899 12 793 3 827
325 -34.938246728677541 -154.90288786418103 232.23097626610402 14 14 22 0.39193733163557776 2 659 5 808 8 699 10 755 11 770 7 889 4 800 9 896 12 840 3 824
326 -20.402703100941306 -150.87388465664375 226.58833882241004 27 27 37 0.38615468564147915 2 660 5 804 8 700 10 756 11 771 7 890 4 801 9 897 12 841 3 825
327 -6.3062831429007806 -154.39967883952627 231.6439088747851 17 15 26 0.58805450399646308 2 661 5 805 8 701 10 757 11 769 7 891 4 798 9 898 12 842 3 826
328 12.003994518579063 -138.91839788205093 219.36741668269448 115 113 150 0.64569422096851836 2 662 5 809 8 703 10 759 11 773 7 894 4 802 9 902 12 844 3 829
329 -27.490198750047902 -143.13555316699373 228.41775812421395 142 141 175 0.28651364770519205 2 664 5 814 8 708 10 763 11 777 7 897 9 906 12 848 3 833
330 68.658087300041913 -158.33781404100986 244.23238617428953 98 98 136 1.1120677294727035 2 497 5 542 8 539 10 602 11 634 7 616 4 645 9 728 12 588 3 550
331 78.557786844268193 -143.41848562800561 240.53539362413071 59 58 100 0.87212147230429626 2 569 5 715 8 598 10 663 11 702 7 797 4 712 9 794 12 752 3 732
332 -5.3670974114587766 6.5666832026092337 34.456036605573829 20 22 21 0.38758161422358034 5 113 4 157 7 190 9 221
333 -9.2351395313064195 8.9592973453515299 32.328146909435425 155 118 69 0.99256070430045162 10 190 11 191 4 176 9 240
335 -7.5425093151958791 6.9445185701848953 33.260323200116623 71 71 71 0.22766523107333328 5 282 10 308 4 236
336 -11.156901723434432 7.2615187954444425 33.635702396220296 90 92 91 0.31833909705067159 10 310 4 238 5 283
337 -8.5752943922502034 10.593620537097699 30.903243941131048 114 79 54 0.54584322005234642 8 205 10 208 4 254
338 -15.057378188893521 -4.7711962125721428 54.02177975261155 93 97 96 0.63636124042526743 7 395 4 269 3 352 8 369 10 360
339 -8.8099670522623317 7.0443251013536923 33.497230531928203 73 75 72 0.56359701505772641 5 419 7 421 8 327 10 377 4 357 9 418 12 481 3 463
340 -10.257852091891481 6.7876634784676408 33.812305041754698 22 24 23 0.39638107887520968 7 508 11 449 4 426 5 407 8 385 10 434 9 504 12 474 3 457
341 -5.1976372301439957 6.9812499618899917 34.598780795001609 78 80 79 0.56989130255911069 8 386 10 435 4 427 5 408 9 508 12 475 2 414 3 458
342 -10.78927278361013 6.8376563609144476 33.698079665294145 26 26 28 0.36679734358803795 11 526 4 428
343 -12.011014443351053 6.9143214576968033 33.733739194596737 27 29 28 0.34830466912229174 5 411 8 388 10 438 4 430 7 512
344 -7.2932823026990574 7.0566635102236486 34.045222378022459 61 61 59 0.33262376226216045 5 413 4 433 7 514 9 511 3 462
346 4.0604265952548335 5.9866105908845313 34.004745122996916 14 16 13 0.65543313177288975 5 498 8 434 4 507
347 8.4679318723519863 6.1840473434549637 34.618216743585933 79 80 82 0.41516686556810845 8 492 10 559 11 514 4 508 5 591 7 668 3 518 2 462
348 -0.96550034598080536 6.6338844681855225 34.268324670209871 98 104 102 0.96519821950645834 8 440 10 495 11 521 4 518 5 503
349 -9.7528168909483313 6.850634773534872 34.131489268648465 20 22 21 0.35982438311232928 5 507 7 587 8 444 10 500 4 521
350 -7.6096363095330339 6.9735190198465249 33.55233787558354 59 61 60 1.0914808747373199 11 453 4 526 9 512
351 2.1458872970430138 8.8141122565286611 32.760687057946996 153 117 69 1.2270658787958422 7 518 4 537 9 525 12 495 3 468
352 11.811381272091474 6.1050776716752466 35.473213276253666 61 63 62 1.2603699287845418 8 488 11 671 4 595 10 557
353 -17.295764121728276 -12.079929659104957 69.592675100109972 55 57 56 1.3913875847775337 7 742 10 734 4 667 9 816
354 57.54678159759851 -148.16843837268138 222.27642648124325 12 12 22 0.97599277277569374 2 626 7 857 8 658 10 712 4 770 9 848 3 784
355 -7.292487203689074 5.3049269197319733 36.937232828733727 115 121 121 0.20326909347356575 2 133 11 70 9 78 12 55 3 57
356 -7.2924872036890713 5.3049269197319697 36.937232828733713 115 121 121 0.2032690934735501 2 134 9 79 12 56 11 71 3 58
357 4.5241366633309266 6.1379618106826657 35.38192996425451 38 39 41 0.3871681720078366 2 146 9 106 3 76
358 2.0416262538739609 6.1253897176287442 35.020901119460035 31 33 32 0.4011219059614663 4 60 8 46 9 112 12 84
359 -2.3459618219997913 6.1563098359187984 35.220055134156127 52 53 55 0.50505323639566591 2 152 9 115 12 174
360 1.4073263193573775 6.508215048391949 34.577736483424466 83 85 84 0.41568406265928093 10 75 9 128 8 68 12 102 3 95
362 1.846009415132609 6.6448749423727635 34.498427588844294 82 83 85 0.32426485861809407 2 111 9 136 12 191 3 177
363 -7.4433332296591459 6.456935738381719 33.820684696893757 50 54 53 0.33705210940211455 7 111 9 139 12 192 3 178
364 -4.2178392428739375 6.9154838932868827 34.150785107268547 99 103 102 0.25065406334983359 5 118 8 96 10 97 9 143 4 83 3 108
365 -8.3820159894094175 7.1190071626564482 33.869095287578766 75 77 76 0.47809409614214032 7 122 9 144 5 122
366 -9.7830616026571739 1.4916405290309112 43.169932282733626 84 90 88 0.32365065911523211 4 21 9 192 11 26 12 21
367 6.6712606598650215 6.1086682626132607 34.557930327016408 57 59 58 0.51149452345198743 2 148 9 210 3 78
369 -5.1349122247497263 6.470299207066784 34.103649209646065 5 6 8 0.35295555445043886 2 160 9 218 3 176
371 -3.3080581300845133 8.6528716292827443 33.001739775749385 168 135 90 0.24777055311628426 8 175 9 237 10 113
372 9.4309247178699191 9.308537733448814 32.681114484185386 108 69 46 0.59705107833375293 10 189 9 241 12 216 3 193
373 4.8899215196889445 9.4038905507767208 31.835057117435401 83 51 30 0.53849413620338671 8 184 10 199 9 247 4 179 5 180 12 225 3 200 2 199
374 1.9390992539231635 9.4594931363574126 31.084239754554545 96 67 38 0.48619490805918059 10 201 9 248 4 181
375 0.58063534231164182 9.7595352672640274 31.475219998534389 80 51 27 0.4206463539813437 10 134 9 250 3 122 8 192
376 4.0890607664792737 6.3506221145686004 34.664375017072146 36 36 36 0.58718399745649363 2 228 9 285 12 272 3 246
377 -7.9973018841472712 8.4065651363435272 33.217120890726846 191 158 113 0.13750054499472206 8 277 10 249 9 298 10 314
378 -69.013777174786441 -155.8765162861545 237.34311164145146 64 64 94 1.1136800030984291 2 257 4 256 8 253 9 308 5 192 7 216 11 202 4 187 12 304 3 280
379 -26.872380631137499 -34.710014783453907 90.963806188410658 138 147 144 1.3661798116908725 4 327 5 249 7 379 10 347 9 320
380 3.8173617697881275 6.1498116291048852 34.956461707722433 8 8 8 0.31127223133706783 2 280 9 344 12 326 3 309
381 2.3486054017756386 6.6299181303338495 34.758196363134196 68 70 69 0.45661128122566996 2 287 5 225 7 256 11 365 9 350 12 275 3 251
382 8.0243718430688737 8.792719146772054 32.135400510337398 134 100 54 0.25663116419259979 2 249 9 362 12 347
383 -7.0015661118315675 6.6870447706174243 34.49338133151776 14 18 19 0.62802102621429468 2 340 9 415 12 394 7 414 3 374
384 -7.7957520122294479 7.2391623278731654 33.63396125367882 9 9 7 0.49215761282633846 10 379 9 420 5 338 12 400
385 -0.48472246261668167 8.8996138836963645 32.336242492598103 152 121 75 0.4559859315793347 10 386 9 428 8 333
386 -16.524104436014941 -39.678699691938832 97.074867265737652 185 191 189 0.53172051387104757 4 385 5 364 7 463 10 406 11 404 9 456 12 434 3 411
387 -22.554176580480117 -30.838938622244967 83.463695456241553 133 139 139 1.9056715378285261 7 380 11 408 9 458 3 347
388 9.238596165492881 5.6739001750993587 34.237470199997404 16 18 17 0.30001333912520117 10 366 9 481 4 344
390 -5.9120047686960504 6.7162255412451071 35.001136592927843 12 15 14 0.38142481079877105 2 410 9 493 3 372 12 392
391 -7.483067784365903 6.6879185704191153 34.016981174723881 16 18 17 0.34343600028241822 5 405 7 505 9 497 8 384 10 431 12 468 3 452
392 -4.5588582685535561 6.8821677334749181 34.165706226301666 52 52 54 0.60333675430848022 2 412 11 447 9 507 12 397
393 2.7356915518785949 8.346530311574762 33.370136386637938 122 84 38 0.36984697962913476 2 420 8 397 10 444 9 521 12 404 3 385
395 9.3489591158471708 7.3508273731254139 34.336246382605935 165 128 87 0.4732995946029479 2 468 9 606 3 527 4 598
397 25.892563079496185 -22.597983097280338 84.781902854662434 9 7 8 0.55118811807625145 4 588 5 577 7 656 9 658 3 584
398 11.060749440090225 6.137151576150953 35.641176980207987 59 61 60 0.39140634200826763 2 529 9 673 12 626 3 594
399 9.5280772698098701 6.2713423479829293 35.454528119402028 62 63 63 0.49443824087266652 5 590 10 558 9 675 3 595
400 6.0407313989136018 8.3879457420782568 32.002181604704141 147 113 65 0.84141560716246921 5 601 8 504 9 682
401 -13.435533405866705 -47.558438369484705 102.64836530435183 46 45 59 0.59849781380393674 7 730 8 546 11 645 9 736
402 -37.208320574255545 -46.184611864297111 115.4528830051357 50 67 57 1.0530437419057475 4 727 5 658 7 733 8 549 10 616 9 742 12 609 3 663
403 -14.880123906297591 -31.544625655500415 89.386176331264494 63 68 64 0.40265986228372697 2 511 8 551 9 745 12 691
404 -16.495052789493698 -23.044211099166972 82.1667717172664 7 8 10 1.9839876535599117 2 516 7 740 8 614 9 750 12 698
405 -13.880380658595325 -44.628025262084257 102.8193523525801 166 168 167 0.45786279499462468 5 724 7 803 8 668 10 669 11 711 9 798 12 757
406 -17.719232114074693 -41.730177657058739 98.565719531614207 208 212 213 0.38083780209296325 4 723 5 725 7 804 11 712 9 800 3 740
407 -11.175074121644275 -16.027995192369328 73.259918217106659 205 211 209 0.94880865995155128 2 638 8 619 9 813 12 701
408 -14.957105087715295 -12.80966842627468 70.800287439331385 65 71 69 2.0645467128454293 8 620 9 815 12 702 3 680 11 669
413 -62.898278818740231 -129.29151899845468 236.80948085793645 161 161 189 0.36992696872807845 2 669 4 810 5 817 7 902 8 711 10 768 11 782 9 910 12 852 3 838
414 -14.521704788408719 -41.095305632415531 83.650857809100273 200 200 208 1.5376296224198203 4 811 5 818 7 903 8 712 10 769 11 783 9 911 12 853 3 839
415 28.721868884129258 -22.747758830986168 84.431045376468788 207 187 150 0.70871930134214345 5 826 7 914 8 720 9 915 12 865 3 846
416 -15.231275433949738 -15.233554871216739 71.664340855744697 7 7 7 0.45662343639286518 2 677 9 917 12 869
417 -0.93745801071918677 6.4381237862762184 34.156249290552736 58 58 58 0.38089825765216878 11 112 8 70 9 130 2 156 7 104 12 106 3 98
418 -28.66461684197764 -44.3668233968584 103.37220701735367 11 15 18 1.1337562557970449 2 636 9 862 12 812 3 842
420 -9.7733492033470508 1.4877088633934128 43.143423176732618 108 113 109 0.24078602861252829 7 37 9 193 12 22
422 6.4332709105779697 6.1617879204598367 34.740514441388278 49 51 50 0.35564890088408307 2 93 9 113 12 85
423 2.8826630682657521 6.1385081421572947 34.75748162621808 43 43 43 0.15217301062010438 8 52 12 87 10 60
424 -5.3697683606304176 6.4947947431469464 34.940086600259974 177 179 176 0.34262044710450718 2 188 12 104 3 96 7 102
425 0.42717916879466494 8.3179821580021382 33.527267836562935 166 127 69 0.26883652319178603 2 195 8 114 10 111 12 127 3 116
426 -6.2276746862104062 10.167568209066225 30.344378282562449 109 74 44 0.62847891364761121 4 186 5 129 8 203 12 145 10 138 3 213
427 2.4027183409681023 8.8215528628008002 32.481383559610705 138 104 56 0.21072655568555609 10 186 12 211 3 190
428 2.0057110161180089 9.5738914129023129 31.123867636714174 119 86 51 0.98812416781941204 2 204 8 188 12 229
429 -7.7895040684248471 10.282534527216658 30.623787999722989 112 78 38 0.2682945989531183 8 296 10 266 12 235
430 2.1134816827224987 6.1982292878952681 34.743253976380004 9 9 9 0.29214681494438477 8 265 12 267 4 219 5 270 10 229
431 6.8056796460838527 6.2642621298579462 34.030436783547913 62 62 62 0.67443456255144374 5 219 12 269 7 248
432 6.2070762103725166 9.2681712249743793 31.79592716954771 96 60 34 0.95129396859126025 2 251 12 293 10 196 3 274 4 300
433 -9.1335635040785004 6.6880086737158253 34.809008466364091 57 59 58 0.589582772455716 7 338 12 335 5 278
434 -9.332032277086638 8.9533340315105683 32.314502636873577 162 129 78 0.7151257061777675 5 237 12 349 3 194 11 248
435 11.515746845802807 5.8128067088065292 36.058783403080504 15 15 15 0.22858365279549928 4 408 12 452 3 438
436 -4.5163962977366658 6.4754073913881811 33.926823856828882 19 21 18 0.46541311677499247 2 408 9 411 12 464
437 0.22996277087941286 6.6099162793471162 34.253733691669041 61 61 59 0.37085243975693521 2 407 10 426 12 465
438 -9.7223338293927899 6.8310159929218228 34.008951597210086 20 22 21 0.33258330902952005 7 588 9 506 12 472 5 508 8 445 10 501
439 -0.13037209376586611 8.4748566375348471 32.913624918807251 118 76 28 0.19864697125244815 11 457 12 491 3 467
440 -5.4074883367824844 9.1943072389535381 32.551605467467745 207 175 128 0.6515231681028143 4 540 9 527 12 498
441 -8.4733811426557466 -12.935980779288887 62.372156783231553 71 76 72 0.86670936151018885 8 557 12 622
442 11.565574026806669 8.2639445795751723 33.264114417099705 133 99 51 0.76453647678555159 7 745 9 677 12 629 3 598
443 -9.5127979830065481 9.4854285527337634 31.616262515268591 213 181 134 0.54753370254599665 5 683 8 568 10 630 12 637 3 685
444 -16.41975084283176 -43.40682418952904 96.869172138624862 121 123 113 1.092193865813905 4 656 5 656 8 603 12 684 3 659
445 -14.781705303349412 -36.155769454523458 94.068960052241394 224 224 223 0.4679292071694352 11 648 12 687 7 640 3 664
446 -14.822223400258423 -36.247497272601841 94.374695403965802 224 224 223 0.29832469056024508 11 649 12 688 3 665
447 -30.715978983430539 -35.734779688127254 93.601639536566253 135 140 134 1.0424537638436588 4 659 5 661 7 735 8 550 10 617 12 690 3 667
448 18.324717291633139 -35.331027272458662 102.42405371012781 184 184 182 1.1026988084276514 4 663 5 574 10 675 11 661 12 692 7 647 3 669
449 13.320023428843864 -28.573120679225635 87.027930260977541 55 60 56 2.4063784645321338 11 665 12 694 4 666 3 749
450 -19.592774708721993 -39.150239202008002 102.9690098503475 227 229 226 1.0199291332960783 7 810 11 717 12 760 4 730 10 672 5 729 3 748
451 22.445510825093177 -27.338270016973429 86.301210989722463 145 149 150 0.64664494246895909 4 736 5 733 8 610 10 680 11 723 12 764 3 750
452 -15.886846041583333 -19.993129777131223 78.174703106231092 228 232 231 0.53479623623283523 8 674 9 868 10 733 12 816 5 787 3 805
453 -0.58289596025504353 12.551806222450091 34.131902159287883 150 145 124 0.76065077298489558 2 646 12 820 3 758
454 -63.769461453417492 -196.03801057388887 249.63756899200854 119 83 71 1.0298204740418999 2 657 4 796 5 800 7 887 8 694 9 894 10 749 11 765 12 838 3 822
455 9.5375992946332566 -50.168109564877888 111.35767537223212 212 198 159 0.86081181633589421 4 812 5 820 7 905 8 714 10 770 12 856 3 840
456 7.2738866000937579 -35.826989613036673 87.600438365774394 24 23 21 0.75216255507199592 5 821 7 906 8 716 12 857
457 -0.32584144684299909 6.3763806761834028 34.977080091430956 12 12 11 0.55426391880279369 2 401 9 487 12 458 5 500 8 438 10 489 7 495 3 446
458 4.3847129878855693 4.6425288719896765 68.6423436056741 6 5 4 2.472613183437379 8 138 12 30
460 0.24826027495271993 6.219125589461064 34.982102183288006 35 37 36 0.43183023984774671 2 105 4 62 3 84
461 5.0801338766236999 3.1670934894552905 16.484439783104094 81 81 81 1.7795294942855118 7 88 3 86
462 -4.9739017078592012 6.493836935261986 34.520708530774996 44 45 47 0.19054113819961757 5 166 7 189 12 108 3 99
463 -2.0315695813968335 6.8453883043826602 34.676679674713696 129 131 130 0.33741354366099569 2 191 12 113 3 182
464 5.5139878930824509 10.125992778394036 34.141286186539794 101 68 43 0.05009263848620972 2 200 3 202
465 -0.43520432929438491 9.8467008563085798 31.540428086245427 110 75 47 0.61984415489015043 2 206 8 196 3 208
466 5.4569621764829179 5.9824908418348777 34.783632349248784 37 37 39 0.38335738746078157 8 142 9 206 3 239
467 0.57729914008497685 4.5643345674925317 24.785111106376853 6 8 7 0.20960831980319206 7 97 3 245
470 -8.9251612857209395 9.0653232181548145 32.489393877653292 185 153 104 0.68689163168547374 5 239 8 240 3 272
471 -2.4658501903444741 6.8647359161149195 34.661018372719347 63 63 62 0.2398795484836462 2 341 7 507 3 376
472 -6.3952324231465818 8.6106181836640783 32.252438753887418 192 157 109 0.14378459461533374 10 382 12 406 3 389
473 -70.318460192006711 -132.12872972275849 261.4845169354067 107 107 135 0.72769601096131997 2 312 4 376 5 357 7 449 8 354 9 447 10 398 11 394 12 429 3 402
474 -15.968690069093409 -35.580442247546635 93.562924442680639 182 186 185 0.35181983039785419 7 464 11 406 3 415
475 -15.968690069093409 -35.580442247546635 93.562924442680639 182 186 185 0.35181983039785419 7 465 11 407 3 416
476 -2.1857878617771265 6.7016040859079578 35.987742217442175 20 20 20 0.36291023843921988 7 497 9 490 12 462 3 449
477 -10.972627446679541 6.9519855296276045 34.280840846673506 20 21 23 0.43067663718881716 7 509 8 387 9 509 3 460 5 410 10 436
479 -73.142917620476751 -128.97536215782443 261.07775362798384 133 130 159 0.78115345597050401 2 435 4 472 5 561 7 631 8 474 9 644 10 536 11 572 12 602 3 491
480 8.4498917992183316 -2.8639384782264377 67.018606013141692 13 13 13 1.3762788844796991 11 670 3 509
482 -72.544566039983849 -156.4531375903087 239.76544221083108 126 123 152 0.71696668657873119 2 495 4 644 5 643 7 719 8 538 9 727 10 601 11 636 12 677 3 650
485 -27.359884266099627 -142.34817470873665 227.21913088682683 140 139 172 0.22536991428718678 2 665 5 815 8 709 10 764 11 778 3 834
486 -1.0124102343368777 40.834140776443867 100.37541982519299 36 22 13 1.8154277670199117 2 683 5 827 8 680 9 878 10 776 12 878 3 853 4 787
487 -3.2655037065882686 6.4158340738763098 34.439177405130721 4 5 5 0.33474742667927948 8 225 10 238 7 254 5 277 3 250 2 235 9 348
