# 3D point list with one line of data per point:
#   POINT3D_ID, X, Y, Z, R, G, B, ERROR, TRACK[] as (IMAGE_ID, POINT2D_IDX)
# Number of points: 356, mean track length: 5.5898876404494384
1 5.8062795158680922 6.2868955521430125 35.202931889270808 45 45 45 0.31020058363074976 1 183 11 93 8 143 5 156 4 57
2 -2.8629663410864765 6.7400980767904564 34.566318290271127 44 44 44 0.52224331620457021 1 158 11 114 8 76 10 83 7 110 4 73 9 219 12 189
3 0.055680137314013757 9.868813119415595 30.958312401652712 121 85 49 0.15275348348175108 1 256 11 197
4 8.2947179848236541 6.973228052608448 34.283709614755104 43 41 42 0.1996704443878945 1 233 11 234 8 227 5 226 7 258 4 233 9 289 12 278 3 254
5 10.643119353174532 8.9216852439474597 32.5451536207595 133 96 52 0.42499101518298837 1 196 11 245 8 174 10 183 5 176 7 204 4 173 9 236 12 130 3 189
6 5.8990523012382976 9.5670954377852553 31.762682302498394 105 69 45 1.7252020895189359 1 253 11 252 5 242 3 201
7 4.7700299762057803 9.7195125401183926 32.010100353716112 124 85 54 1.4627880373128002 1 201 11 253 8 248 10 261 7 277 4 248 3 204
8 5.6016292171966908 6.3004041231029566 35.042745444583311 15 15 15 0.45000661989507396 1 224 11 283 8 218 10 227 7 243 4 217 9 281 12 263 3 241
9 5.0010356528252089 7.9008773741708449 33.90685100827357 181 144 92 0.29801301462079188 1 241 11 302 8 236 8 275 5 284 7 266 7 344 4 240 4 292 9 295 9 355 12 286
10 -4.9014938230100897 8.6776071842354376 32.972879350688849 168 132 84 0.60174978885524411 1 296 11 304 8 280 5 287 7 347 4 294 12 344 3 323
11 -4.8818287548821973 8.7826258883412489 32.658398399221291 179 141 92 0.49889150112156111 1 297 11 305 8 282 10 317 5 288 7 348 4 296 9 361 12 346 3 324
12 0.60594875303554485 9.2845706497403704 31.651868891160376 145 108 60 0.52894068005183736 1 300 11 313 10 259 5 241 7 351 4 246 12 295 3 198
13 10.653316764092992 6.0149059514735201 35.536185933137141 15 15 13 0.48187593389898287 1 273 11 356 8 259 10 290 5 265 7 321 9 341 12 322 3 307
14 6.175033770846416 6.3171314315158194 35.265583352382357 21 21 20 0.61644635921381497 1 396 11 438 8 374 7 580
15 -0.74385435189212368 7.981400777437921 34.110947365239973 199 163 112 0.2492666750445465 1 418 11 456 8 394 4 438 9 519 12 403 3 465
16 10.66060756919028 9.0379396328915735 32.415086031989418 171 136 94 0.53516799171532192 1 346 11 459 8 332 10 447 5 519 7 426 4 442 9 360 12 405 3 388
17 -4.6841057177190972 9.8242309709307971 31.239937722791502 166 132 86 0.58197856113455437 1 424 11 463 8 405 10 453 5 429 7 431 4 449 9 530 12 410
18 11.2295623256085 7.9115050938052836 34.326139705769478 134 91 45 0.43614085460248664 1 472 11 533 5 515 7 593
19 8.9292940547732549 8.1026722312351449 34.0387625327715 127 84 41 0.73028631411231004 1 417 11 537 8 452 10 508 5 516 4 530 9 518 9 607 12 487 12 562 3 530
20 -3.488941885531617 9.2501296013361074 32.709068244857598 203 169 123 0.46027779240143246 1 484 11 541 8 457 10 516 9 612 12 571 3 537
21 9.7957003561792977 7.9528571769146339 34.077240218155211 135 91 44 0.38949996756732352 1 532 11 600 8 497 10 563 5 593 7 670 4 600 9 676 12 628 3 597
22 9.8734236927714338 8.5204394091966709 32.90357968153539 138 100 53 0.5454766366258843 1 533 11 603 8 498 10 565 5 595 7 672 4 602 9 678 12 567 3 599
23 1.6238906965640401 8.5261246584306534 33.287229758040773 143 102 51 0.36797484927853358 1 534 11 604 8 499 10 566 5 596 7 673 4 534
24 1.6280115881045916 8.537806455607976 33.334247811546717 143 102 51 0.35456665930910841 1 535 11 605 8 500 10 567 5 597 7 674 4 535 9 679 12 630
25 0.98789565902052667 8.6109569126388212 33.422931381075621 138 98 47 0.25806301086013872 1 537 11 606 8 501 10 568 5 598 7 675 4 603 12 631 3 600
26 0.98777669290467474 8.6111974415050323 33.422761791304033 138 98 47 0.24015008351394701 1 538 11 607 8 502 10 569 5 599 7 676 4 604 9 680 12 632 3 601
27 7.1173156687422106 8.7099233198667054 32.791979045433372 151 113 64 0.47533238129377836 1 536 11 608 8 503 10 570 5 600 7 677 4 605 9 681 12 633 3 602
28 -1.807982869760016 8.7637135829961341 32.990128053708048 150 109 57 0.46359301294154664 1 593 11 673 8 563 10 628 5 678 4 671
29 -1.8089288803152472 8.7740899461281199 33.023701764831223 150 109 57 0.44575305125433007 1 594 11 674 8 564 10 629 5 679 4 672 9 754
30 8.4570325476136929 9.2433734850027065 32.501321907066881 164 129 86 0.45957658059655637 1 539 11 675 8 505 10 571 5 603 7 746 4 606 9 684 12 634 3 603
31 -20.276288421627225 -40.305170509013806 102.35762495548609 222 224 223 1.0604674835310068 1 581 11 713 8 604 10 670 5 726 7 805 4 725 9 801 12 758 3 741
32 9.5222671128862313 9.0665249049435062 32.432562074287738 155 119 77 0.56252588172650453 1 640 11 727 8 625 10 687 5 740 7 825 4 673 5 680 12 771
33 28.181891357927697 -20.866157928539984 82.070370061472346 200 176 140 0.94789910709467473 1 674 11 789 8 719 10 773 5 825 7 913 4 817
34 28.715059997432078 -21.274234810420886 83.554705247210848 200 176 140 1.1809460340944351 1 673 11 790 10 774 4 818 9 916 12 866 3 847
35 12.387247615515793 5.9716606084307191 34.873454712925181 70 72 71 0.46808942335630527 1 132 8 37 10 43
36 5.5382020412352819 6.3955722602217824 34.779845416949868 46 48 47 0.15222200717310075 11 100 8 49 10 57
38 -0.58672703473484222 6.768911945371495 34.395522727803446 41 43 41 0.22294214449303285 11 116 8 77 10 86
39 -8.8325654498600006 6.8876860223585261 34.827959555481591 51 57 57 0.75953484475111366 11 238 8 155 7 194 3 180 9 290
40 11.940827058351632 7.8937639896909122 33.98593345230438 139 107 58 0.29145430984068976 1 192 8 165 10 178 9 146
41 -8.0272273841226998 9.0165029233261151 32.533120450577769 162 130 81 0.3392374781029972 11 190 8 177 10 188 12 213 9 239 3 192
42 -10.4162404080869 9.2320964529037202 32.165366930825648 148 112 62 0.49372233890937395 11 251 8 180 10 258 5 240 7 273 4 178
43 1.2772255448472702 6.4762941047835927 34.835540258804976 7 9 8 0.38393638799447516 1 226 8 219 10 230 5 220 11 229 4 221 9 212 3 243
44 -2.8377447897467825 6.6421183464779867 34.674448963408857 5 5 5 0.31621036995016222 11 289 8 224 10 237 5 276 7 253 4 228 12 274 1 234 3 249 9 347
45 5.0011086840023937 7.8980664288000728 33.906074484046179 177 143 97 0.32162117754497949 1 240 8 235 7 265 4 239 9 294 12 285
46 7.5364500539825423 8.3062256625317161 34.050969902936849 113 79 33 0.35026851286679589 11 243 8 237 10 247 7 267 9 296 12 289
47 -5.8165549954092155 9.3337840913174368 32.509077978727056 206 171 127 0.62690341098654268 11 311 8 242 10 255 10 321 7 428 4 298 9 365 12 409 4 447
48 1.726349846445925 9.3311955755414342 32.189783930119731 128 96 49 1.0587854494986915 11 309 8 243 10 256 5 293 12 221
49 1.726349846445925 9.3311955755414342 32.189783930119731 128 96 49 1.0587854494986915 11 310 8 244 10 257 5 294 12 222
50 11.854290017459444 5.9786814419593588 35.305915447127013 25 26 28 0.88804505550794344 11 281 8 258 4 277
51 3.0305929099839766 6.4516317129826417 35.153169381679518 8 9 11 0.43718944182784425 1 281 8 264 10 295 5 269 7 328 9 345 12 329 3 311
52 3.5262193227807641 8.7940199932586101 33.055225521439517 159 126 81 0.38432069379346867 1 293 8 279 9 302
53 0.9422885499440895 8.9013571832993321 32.424889978576267 163 130 85 0.55108524274340553 1 347 11 306 8 283 10 384 5 290 7 349 9 363 3 326
54 2.6156964059411156 9.0424056626029312 32.173253465097595 161 131 81 0.22942233380421545 1 348 8 285 10 319 5 291
55 2.6387210959757237 9.1007368105766737 32.392069554798795 161 131 81 0.28020871957235421 1 349 8 286 10 320 5 292 9 364 12 348
56 1.1564874609948972 9.2587112643933924 31.808295985290222 143 111 64 0.14059189598457614 1 299 8 289 10 324 7 350 12 351 3 329
57 -0.12916300751076712 9.6114143901914666 30.872378945311638 153 120 80 0.37948857435172101 1 304 8 293 10 328 4 303
58 -2.063991865685006 9.8187566985372126 30.969525642898134 164 136 98 0.83149597528265318 11 377 8 294 10 329 5 342 7 355 4 251
59 8.7873038876847769 6.0966013085888351 35.251651336906697 19 21 20 0.40627328355233844 1 274 8 314 10 365 5 327 7 324 9 400 3 308
60 3.5686558198297824 6.425211882498469 34.978541591001765 9 10 12 0.30777217844057442 11 360 8 315 10 367 5 392 7 492 4 345 9 485 1 397 12 455 3 443
61 -0.48095683004727274 6.5617942887553529 34.837405227335069 11 11 11 0.30391983201530226 11 362 8 317 10 369 5 328 7 408 4 346 9 407 1 333 12 387 3 370
62 -4.7365307858668944 6.8237601784863733 34.7450777072793 11 15 14 0.32367757631178318 11 292 8 320 10 371 5 331 7 411 4 351
63 -6.4856656914071875 6.8648208385906466 34.563103555817072 15 17 16 0.42715421850657764 11 367 8 321 10 373 5 332 7 413
64 9.2124027534586368 8.3811175320020741 33.256633557445916 149 117 70 0.50837721386945656 11 375 8 330 7 345
65 -7.4761979920159973 9.8346177467792089 30.706876951005405 173 142 96 0.56737421789458076 11 378 8 338 5 343 7 522 4 304 10 330 12 502 3 393
66 5.0879806630340285 6.2625578404237423 34.575144269357885 13 14 16 0.88296633428847837 1 461 8 375 10 416 5 391 4 412 3 517
67 1.8177375329208509 6.5331439018232347 35.046947596579855 19 20 22 0.56799630426967274 1 399 8 376 10 418 5 393 11 439 7 494 4 413 9 486 12 456 3 444
68 1.8125924393556188 6.7084042008670801 34.158248680619437 87 88 90 0.51638613053777904 1 405 8 379 10 423 5 399 7 499 9 492 12 388 3 450
69 -4.1291804570827679 6.7492174881360389 34.481428107111299 23 25 24 0.4072019227915612 11 443 8 380 10 425 5 402 7 500 3 371 9 410 12 463
70 -5.2992515289426123 6.7810197474214906 34.344602964333376 11 12 14 0.335796043779027 11 444 8 382 10 428 5 403 7 501 4 419
71 4.5840130705700162 8.3603279447890717 33.370946739327657 126 91 45 0.34485477954746152 1 419 8 395 5 424 12 489 3 466
72 -4.4389961244783933 8.8185717086505626 33.161372172614975 190 156 108 0.72700157673953825 11 376 8 398 10 381 5 340 7 425 9 523 3 387
73 -4.4161934383640391 9.2571350016252243 32.635513119234759 203 169 125 0.48499382093325261 1 423 8 401 4 444 12 497
74 -5.3804145419541385 9.2551273746740446 32.241525535011895 207 174 131 0.30298973501212412 11 460 8 402 10 387 7 520 4 445 9 430 12 408
75 -10.359143384659632 9.6752489958731811 31.960533061493841 220 187 141 0.69266893972335275 11 462 8 403 10 451 4 448
77 12.254204147198829 5.8797356676584984 35.373019163195607 23 22 27 0.87388866824802047 11 509 8 430 10 481 5 494 4 593 3 514
78 2.4006840574074166 6.5675114942061219 35.39989262080735 15 16 18 0.92423691752458303 1 463 8 435 10 486 5 499 4 414 7 493 12 550 3 519
79 -8.1414785073774638 6.9340608366469434 34.277170741476851 18 22 21 0.53100844101133027 11 523 8 442 10 432 5 406 7 416 4 425 9 500 12 469 3 454
80 -10.867415589561693 7.1234803440998951 34.106512033462224 22 26 25 0.2340939939778667 11 527 8 446 10 504 5 511 7 591 4 523
81 -5.3206519440006312 7.0809058403214147 33.999480541535867 64 69 67 0.39788307271896378 1 470 8 448 10 503 5 510 11 525 7 590 4 522 9 604 3 525
82 -7.7869924829062143 7.2960348318455255 34.269063527399382 50 55 51 0.9802166519058283 11 529 8 449 10 505 5 514 4 525 12 480
83 -11.082624886057328 7.2985512287455547 33.12165933051984 58 62 61 0.53799520537111656 8 451 10 507 4 528
84 -0.70614601561661428 8.0292474353616274 34.134250238518895 199 173 124 0.050965531620492346 11 538 8 453
85 -4.695718271365239 8.9754818617910992 32.581471836284443 139 102 50 0.35133538471027465 11 609 8 455 10 515 1 540 7 597 9 683 3 536
86 -5.431108373157203 9.1417032239168705 32.907833001184841 137 100 48 0.853851188976125 1 483 11 540 8 456 10 572 5 522 7 598 4 539 12 570 3 604
87 -18.52753695644822 -39.769422737136097 103.22634434029045 173 179 179 0.78747956835669819 1 439 11 492 8 477 10 541 5 464 7 549 4 482 9 557 12 533 3 495
88 -18.340011947474899 -33.610979322058562 98.479403267048752 149 155 155 0.68205600446156778 1 364 8 480 10 546 5 573 7 645 9 653 12 615 3 578 11 583
89 -12.535932642075364 -14.617480866091466 72.973005301679663 85 87 84 0.49646434349394947 1 443 8 485 7 659 5 580 10 549 9 661 12 621 3 506
90 7.9170665339140065 6.3121204989498336 33.963226918193463 55 57 56 1.3756720679030257 11 595 8 493 3 596 9 595
91 4.0599520168685048 6.7714477470816856 34.9329806020381 74 75 79 0.758308765426294 11 598 8 494 10 560 4 515
92 -13.597604543460932 -26.625979755934335 87.39382885682997 25 28 30 0.76621832506102716 1 513 8 554 9 748 12 695
93 -4.7087219768257347 8.9777302937458181 32.656021115491107 138 101 49 0.3200746287120334 1 595 8 565 5 602
97 -16.362539506215491 -28.007232241638665 87.742552114632815 167 176 175 0.79693584174873944 1 583 8 607 10 677 5 731 7 813 9 806 12 763 3 673
98 -15.81705665867398 -20.569064021467405 72.675203455728166 30 31 32 0.65224939844962992 1 586 11 724 8 611 10 681 5 734 7 815 9 810 12 766 3 751
99 -12.297522062227614 -16.524048334012811 75.891899325722619 26 25 21 0.37461056031739337 1 588 8 617 9 811 12 768
100 -12.297522062227614 -16.524048334012811 75.891899325722619 26 25 21 0.37461056031739337 1 589 8 618 9 812 12 769
101 5.7373783772980227 7.8603646627183403 34.335666938137251 177 144 99 0.20394154510008292 1 591 8 624 10 626
102 0.64994845601257589 9.6332666541850962 31.352687985712993 162 133 91 0.5131426829385185 1 641 8 626 7 748 12 706 3 686
105 -14.899129060881583 -19.177548549123653 79.919856600278479 223 229 230 0.62825325219339812 8 673 7 872 5 786 10 732 11 758 9 867 12 815 3 804
107 8.2959101826119177 8.3408720436483943 32.944200164745091 154 121 76 0.42409023256313694 1 244 8 276 9 297 3 265
141 -7.3744082444687145 6.4869512133337315 35.855486711102706 69 75 73 0.61196999617586312 1 107 10 62 5 98
142 -4.5269214982382175 6.7686859135043793 34.874393340673095 44 46 45 0.26474514781676395 8 75 11 113 10 82 4 70
143 -9.0121584093982428 7.16150013584513 33.540725825343841 41 43 42 0.37923035707159364 11 131 10 177 7 261 4 165 3 258
144 1.6208800134817909 9.8004165836708967 31.535917701100505 109 75 39 0.40217200942950049 1 203 8 190 10 203
145 -6.9591695032324825 5.4960182649251257 37.359748923448436 36 38 37 0.38942556782409737 11 280 10 222 12 254
146 0.71957153271208663 6.5175104214301331 34.955733403425889 7 7 7 0.4147589558006069 8 220 11 287 10 231 5 161 7 246 1 231 4 222 9 284 12 270 3 244
147 -7.5649355693336826 6.6790037758354961 34.013097516615218 71 75 74 0.41404082596465297 11 294 10 240 7 192 4 159
148 -4.6285191281332967 8.6116979541678376 33.07916371109193 173 137 89 0.49293231616474548 11 246 10 250 4 242 3 188 8 238
149 -2.4470256359302036 8.6149508809286193 32.881783859084528 187 151 99 0.48255323946677703 1 248 10 251 9 301
150 -9.0975702165551304 9.1300817981481277 32.416188349316286 162 127 74 0.56882928353203011 8 179 11 249 10 254 5 238 7 271 4 244 9 242 12 291
151 0.60142480280670185 9.336434499574878 31.834440541902055 132 95 50 0.58283996749922051 1 301 10 260 7 352 12 296 3 199
152 4.3614914857921487 9.6136331102162753 31.537462671671616 125 89 58 0.57736105472664778 1 254 11 254 10 262 4 180
153 6.837610855571123 9.4196271771099251 31.94590265734594 100 63 36 0.67710043165546452 11 308 10 322 7 274 4 299 9 304 8 245 12 292 3 273
154 1.1566230919866829 9.250815985652034 31.780827957245496 151 115 67 0.16302747721387054 1 298 10 323 3 328
155 5.0263045655308094 9.4851115532984682 32.055925156783267 148 113 71 0.43586696070267278 8 290 11 312 10 325 9 368
156 1.1511504807941706 9.3693977889340854 31.474826331201545 172 138 92 0.26067769660253565 1 303 8 291 10 326 7 354 4 301 12 353 3 330
157 9.1747356091026653 6.4247902679175777 34.510579969813989 66 67 66 0.4891255160662743 11 359 10 368 9 405 1 278 12 328
158 -8.6484621008015417 6.9294374356766868 34.216906003023134 16 16 16 0.38757135802600273 11 370 10 375 5 337 7 417 8 323 4 354 9 416 12 396 3 315
159 -5.6344444801493196 8.8766105385639449 32.812056762013036 184 148 98 0.73362282802037149 1 422 10 383 7 427 9 427 12 407 3 390
160 8.0778502947523112 6.7333901961866029 34.240633474579866 12 8 8 0.3342596622645142 1 400 10 419 12 459
161 7.6988138799859422 6.87011708485631 34.922401764195399 12 10 11 0.30011642354282952 1 402 10 420 5 396
162 2.6003556073817937 7.0541157116028357 34.609554362633091 11 11 11 0.47210274463748969 1 409 10 430 5 334 1 336 7 506 4 423 9 496 12 467
163 -0.27313779256323634 8.6816159997753015 32.932812159692467 134 95 46 0.31790118114892307 1 482 10 445 7 517 12 492
164 4.1824971075698745 8.6632438591011116 32.43211594215984 159 125 79 0.67697898412794311 1 345 11 458 10 446 5 425 4 441 9 522 3 386
167 7.6200642866241539 6.1548250806879956 34.931956366839131 23 25 24 1.3626750305614521 1 460 10 483 7 579 4 506 9 593
168 8.2739676265366153 8.1808457375248036 34.192255459364944 122 84 37 0.74448718151353277 1 475 10 509 5 517 4 531 9 608 12 564 3 531
169 7.4109483682315593 8.2015890193727632 33.988896208074763 137 101 51 0.51808961922908003 1 476 10 510 4 533 9 609 12 565 3 533
170 -3.7596201011731329 8.6103650945940498 33.054643639568575 200 164 116 0.3595652770010751 1 481 10 512 4 536 9 611 12 569 3 535
171 0.22779102189172823 8.7129312141717019 33.299534335924889 125 83 37 0.25561011599523203 1 479 10 513 5 518 7 595 12 568 3 534
172 3.0945142737729849 8.9160322903267808 32.592054404163804 153 117 69 0.69179437743044458 1 421 10 514 5 520 9 526 12 494
176 9.1489385078568102 6.0621227185819233 35.174087328480461 18 20 19 0.73634058925418011 1 528 10 556 5 589 7 667 4 505 9 592 3 515
177 -10.105852459869421 7.0064707288791768 36.407985213315882 56 60 59 0.88444093527175716 10 561 5 592 12 558
178 8.130859125742445 7.6474794887228095 34.194012723464901 173 136 84 0.37972061815725189 1 531 10 562 7 669 4 599
179 4.0850772894638725 8.4218312826930042 33.679353207672342 129 89 42 0.43052433482024216 11 602 10 564 5 594 7 671 4 601
182 11.752324442612482 8.3820789909511415 33.023090194978906 135 99 51 0.8017524170957786 11 672 10 627 5 677 4 669
194 -1.2143927974817443 0.14291668630873886 6.5123158368268887 17 19 16 0.65001589170267704 8 137 5 28
195 8.1719638055777093 6.1175355098846378 35.374508586359163 40 41 43 0.17281756861550832 11 81 5 82 7 176
196 3.8351745124289898 6.3712217930002897 35.213555294937109 35 37 36 0.48200047150354064 1 149 5 94 9 111 12 173
197 2.6696891739605855 6.4827633521454748 35.452457357106844 34 35 35 0.24901090831579667 1 150 5 95 7 91
198 -5.9742171914529374 6.7214618172422282 34.657525380477651 106 110 109 0.29642229497810335 11 115 5 110 7 109 12 109 3 100
199 -5.9834612621656653 7.0071701630382277 33.935799962511936 84 86 85 0.19816751286712289 11 124 5 117 4 82
200 6.5654421040117033 7.6641198727870616 34.156080974163039 146 114 58 0.96754176024144334 1 166 5 123 7 123 9 145
202 7.4868979847818737 6.5148764016457088 34.581407756145822 124 128 129 0.22773370977403337 10 161 11 171 5 159 7 181 4 153 3 242 9 346
204 -11.702520299698381 1.8257799696232393 43.353499262961435 72 78 76 0.28046355439255494 11 279 5 263 4 275
205 10.524962511953298 6.1766972916947909 35.248480122668809 60 62 61 0.50429999659216662 1 275 8 261 5 267 4 278
206 4.2750802566480282 6.6650561947934035 34.350482954596941 64 66 63 0.60826416103055381 8 267 10 300 11 364 5 329 7 337 1 283 4 283 9 408
207 11.978722470259994 5.9839343299122225 35.433736583877362 20 21 23 0.48961315672074918 1 330 5 389 7 406
208 -3.4650115596615922 7.2986977167168421 34.1323074030296 8 8 8 0.4465359921378137 1 416 8 390 10 440 5 414 9 513
209 -8.2758671216945956 9.4215376960426731 31.824251801242227 215 181 135 0.7444354774297951 11 461 5 427 7 521
210 -1.2508879082822946 -0.015692261267190179 5.6848483901491109 180 182 179 0.89740471071095751 8 486 5 491
211 11.852689038794473 6.2249657885068475 34.854028196262952 90 92 91 0.2226238496723871 1 459 5 496 7 577
212 7.071393609298557 6.2444729243552795 35.35043651948407 16 18 17 0.77690382952177994 1 395 11 437 5 497
220 -20.900422054609322 -132.35544906909021 229.79594841749659 70 68 104 0.33620532980516338 1 429 8 468 10 531 11 563 5 549 7 622 4 565 9 636 12 595 3 560
221 -25.860061336203838 -136.05286176092847 243.18904025356449 143 141 166 0.3200686165897294 1 432 8 542 10 605 11 566 5 550 7 624 4 568 9 637 12 596 3 561
227 -45.119997851738702 -158.77563654849561 231.2796840023787 122 105 98 0.9301356321013351 1 493 8 527 10 591 11 626 5 636 7 710 4 635 9 718 12 668 3 641
229 -52.488762716242846 -146.42252731794812 235.31659869970724 196 193 225 0.42983439837459958 1 561 8 595 10 661 11 633 5 641 7 720 4 638 3 648
233 -57.600292739176439 -130.77252771971899 231.39037926911331 38 37 55 0.37299110504444571 1 568 8 599 10 664 11 703 5 716 7 798 4 713 9 795 12 753 3 733
235 -43.461340136250769 -144.86737428728003 224.84395613422163 7 7 7 0.5789945232063507 1 658 8 651 10 708 11 767 5 767 7 851 4 763 9 842 12 792 3 781
236 -56.015401827754829 -143.52616907568461 223.79665854083993 10 8 11 0.64437062914086329 1 621 8 654 10 754 11 768 5 771 7 854 4 766 9 847 12 798 3 786
237 8.5134229022815013 -142.85431352147111 224.19552678246336 25 29 38 0.76909612764089719 1 622 8 655 10 709 11 744 5 772 7 855 4 767 9 899 12 793 3 827
238 -30.985539489339182 -130.65006297191493 230.14592213957758 42 39 61 0.39045745045789826 1 567 8 663 10 719 11 749 5 776 7 795 4 773 9 853 12 804 3 794
241 -17.278030221772777 -145.23581471117677 228.36524693446168 21 24 29 0.37972583521189973 1 660 8 700 10 756 11 771 5 804 7 890 4 801 9 897 12 841 3 825
242 -3.4712280690834572 -149.02412420530811 233.93889937014069 13 13 21 0.56162410213535696 1 661 8 701 10 757 11 769 5 805 7 891 4 798 9 898 12 842 3 826
243 -31.297175291324454 -148.64811401987879 233.454641485899 11 12 17 0.36888993746254517 1 659 8 699 10 755 11 770 5 808 7 889 4 800 9 896 12 840 3 824
244 14.338599613780836 -134.35533472961674 221.88071423463512 116 115 147 0.64473455483695941 1 662 8 703 10 759 11 773 5 809 7 894 4 802 9 902 12 844 3 829
245 -36.684346533809936 -135.37199725269889 226.09452435286943 151 149 186 0.33566616144036654 1 663 8 704 10 762 11 776 5 813 7 896 4 803 9 905 12 847 3 832
246 -24.097400657672051 -137.19259565157606 229.35560348417971 147 146 178 0.26098832226747565 1 664 8 708 10 763 11 777 5 814 7 897 9 906 12 848 3 833
247 -24.000097044997158 -136.55118155582755 228.33325034197219 147 146 178 0.21460914307375231 1 665 8 709 10 764 11 778 5 815 3 834
248 -57.850005800813463 -122.39557906509238 235.4228011854841 158 155 184 0.34734239079441132 1 669 8 711 10 768 11 782 5 817 7 902 4 810 9 910 12 852 3 838
249 12.68936656017957 6.2837006499610597 35.045244111634645 99 97 102 0.30984953788154845 10 49 7 82 3 69
250 2.8723114566465897 6.5317252635164955 34.795720379339897 67 67 67 0.30058311696789186 8 61 10 69 7 98 9 123 3 172
251 0.67811493796759281 6.4172536337902972 33.783101221750947 42 42 42 0.2811781738847326 10 71 7 101 8 65
252 -3.8971901001784013 6.6261178855226319 34.385943171908217 43 43 45 0.27863341755468185 5 106 8 71 7 103
253 8.2859093352208539 9.4273909294065543 32.101309374248579 95 63 46 0.4383151421908183 1 197 7 131 10 194 9 153 3 197
254 11.063466412302075 6.3758464775527912 34.843716790791973 66 66 66 0.30275919236570409 8 217 10 226 7 178
255 2.7438958814327106 6.757675118339642 35.126117365617368 33 34 36 0.26384535737209908 1 186 8 152 10 166 11 230 7 187 12 184
256 4.7051867399285809 6.6680946027079564 34.390809655794328 142 144 147 0.18644880112447937 5 162 8 67 7 188
257 -1.5461175768308077 8.3428410832034121 32.024913064079229 146 108 60 0.76768610194372433 8 172 7 202 9 299 12 209 3 266
258 -1.9891590952732894 8.6073854509063601 32.91843026047782 146 108 61 0.4234429179439243 8 173 10 181 7 203 9 300 12 210 3 267
259 -8.4251772344209694 9.0662991631331256 32.59200445190104 172 139 92 0.81661780878907797 5 178 11 247 7 205
260 7.7308481844603669 9.2180238579987268 31.530343730729005 98 64 39 1.2714257550472179 10 116 7 207 12 133 3 195
261 -0.49547679150389295 10.065353786946542 31.362306875460899 135 101 66 1.1304345511426352 8 198 7 211 4 183 12 231 8 197
262 4.1564679197384597 6.403044513562401 35.165755955183492 8 9 11 0.29504985402019673 10 228 7 244 8 262 4 279 11 284
263 4.8677396327813387 6.4343550313104307 35.001031940409774 16 17 19 0.1778216256358619 5 268 8 263 10 294 7 245
264 -3.2942412595879134 6.6129130519906152 34.621193701855212 40 41 43 0.41732207303618063 1 286 5 275 7 252 3 248 9 216 12 187
266 8.2999287789520011 6.9815372812015779 34.304854229916771 49 49 49 0.25228809434105898 11 233 7 257 4 232 8 226 12 277 10 170 3 253
267 -2.8186540316532933 7.0442825519175702 34.081264253106887 68 70 69 0.2013685364712893 8 270 7 260 10 305 3 185 9 228
270 3.7973100721316584 8.4696957397414696 33.253868076423693 113 76 34 0.36116533840566728 8 170 7 269 4 171 12 207 3 187
271 -6.4055963395170599 8.6199349223449495 31.485806849194159 181 143 98 0.82303074351621897 10 252 7 270 4 243 3 271
272 7.3618943459154975 9.3386931688362811 31.842471512671764 87 55 34 1.02611787732855 10 193 7 272 4 297 11 307 9 244 12 219 3 196 3 391
273 5.3057954370457363 9.5538471784959693 32.28237805232235 140 106 63 0.19534937401481969 11 250 7 275 4 245
274 -0.51160530382936231 9.8629046979411541 31.431733352830722 154 122 84 0.3902571151395049 8 249 7 278 10 263 4 249 12 298 3 275
275 11.709349052203999 6.0239933434092805 35.861260776715248 10 12 11 0.21422154483675224 10 289 7 320 8 257 12 258
276 11.023736926012962 5.9550842054171058 35.189718063324797 14 16 15 0.44019578995556224 5 266 10 223 7 322 8 216 12 320 3 366 9 398
277 -1.0855279175378485 6.5850240574614753 34.824398380425869 11 9 10 0.34114336717295835 5 273 10 296 7 330 4 226 11 231
278 -1.0854402479260303 6.6259886024241483 35.075707705952745 11 9 10 0.28022448818957568 1 285 5 274 10 297 7 331 9 286 12 273 3 247
279 -2.5390636768062778 7.0182193685424279 34.128385560021641 64 64 66 0.052934123512306537 8 324 7 341 3 378
280 3.9001392863674451 8.5687255585059727 33.054509523973856 193 160 119 0.075865126958284082 8 331 7 346 12 342
282 7.5672626608594431 6.7511350019205727 34.523739835825133 13 14 14 0.74380931899242719 11 363 7 410 9 409 1 332 12 331
283 1.1513741553962384 6.975168945249262 35.129441192633806 95 96 95 0.50348969343759953 1 335 8 381 7 412 5 401 10 427 4 420 12 334
284 -3.8712086773935033 7.25352220075525 33.997072109674271 8 8 8 0.10612980114907461 8 326 7 419 3 381
286 -5.3979050506046251 7.3946621888002735 34.217208210558226 7 7 5 0.2694133074770928 8 328 10 378 7 422 4 358
287 -4.1698057276163381 9.7621610815349342 31.041987424201171 164 131 90 0.31507015906937763 5 341 8 337 10 390 7 430
291 7.0823415788774629 6.2482391562819641 35.37612690798683 15 15 17 0.41296035829465971 10 414 7 490 4 410 9 402 3 367
292 4.6108142695080039 6.4104953094908588 35.230315141454795 12 13 15 0.51570903922847722 1 331 10 485 7 491 3 369 9 403 12 327
294 -2.3005230949092934 6.6525197368755098 34.726824406797782 11 13 10 0.32565374755002452 5 398 8 377 10 421 7 496 4 348 9 489 12 461 1 404 3 448
295 -3.5553726240444048 6.7729868002660654 34.897720618089615 10 12 11 0.30435241135428759 5 400 8 378 10 422 7 498 4 418 11 441 9 491 3 451
298 8.2962437187196336 8.2093025979550927 34.186252222762626 113 77 35 0.41113275129306609 10 443 7 516 4 439 9 520 12 488
299 -1.2147899910089432 9.0948303557683623 32.035368029582187 169 135 92 0.36668058808003784 5 426 8 400 10 449 7 519 4 443 9 429
301 9.9988100204158954 6.0077701983139455 35.114166025150674 13 15 14 0.59786304011850189 1 457 7 576 9 591
302 6.40891457801788 6.6382117781567045 35.017700357648231 87 91 92 0.79293316685071924 8 436 10 487 7 581 4 509 9 597
303 2.9710738275766246 6.730420832390462 34.611758532070844 59 60 62 1.1545582727846635 1 465 5 501 8 495 10 491 7 583 4 513 11 596 9 600 12 554 3 521
304 2.2921365747605384 7.0026662472037629 35.607637717351324 63 65 64 0.5079110697954361 10 493 7 584 12 555
305 -2.4544131837878229 6.6183200050837314 32.426735463842597 56 55 59 0.81727775379000323 5 506 8 443 7 586 10 498
306 11.828813722127093 7.8615522876937094 34.457822981415411 125 87 41 0.28463256532797204 10 506 7 592 8 450
307 -8.8199396300548276 8.7307165959132416 31.898754945901683 211 180 136 0.44294079277014531 5 521 8 454 7 596 4 538
309 -66.614501868117841 -136.7541934862499 244.58945760331437 141 138 165 0.54507064980993292 1 501 5 553 8 543 10 606 11 641 7 625 4 570 9 731 12 680 3 564
312 -18.292271057444879 -15.184613473837304 73.574776668162258 26 24 25 0.6533242399487873 5 578 8 483 10 547 11 588 7 657 9 659 12 619
313 -18.292271057444879 -15.184613473837304 73.574776668162258 26 24 25 0.6533242399487873 5 579 8 484 10 548 11 589 7 658 9 660 12 620
315 15.819818447202122 -151.22545413612039 242.72584837174367 166 161 191 0.51486198761652013 1 564 5 637 8 532 10 595 11 627 7 711 4 636 9 719 12 669 3 642
316 15.819818447202122 -151.22545413612039 242.72584837174367 166 161 191 0.51486198761652013 1 565 5 638 8 533 10 596 11 628 7 712 4 637 9 720 12 670 3 643
317 -30.985539489339182 -130.65006297191493 230.14592213957758 41 38 61 0.39045745045789826 1 566 5 775 10 718 11 748 7 794 8 662 4 772 9 852 12 803 3 793
319 -65.687665508399093 -173.93978397235611 234.49150109212692 207 68 77 1.4696171697640119 1 620 5 765 8 695 10 750 11 738 7 847 9 839 12 790 3 778
322 28.960046858278876 -20.671187511819916 76.854319275992111 0 0 0 1.7232089978966549 1 672 10 682 8 613
324 -4.903098661268551 6.7789601097520071 34.647570703651539 20 22 21 0.36915198585103781 5 113 4 157 7 190 9 221
325 -8.7377369277040327 9.1096169173626542 32.520332215797424 155 118 69 0.98982862377856495 10 190 11 191 4 176 9 240
327 -7.0667150464631519 7.1481270311182437 33.509242544372974 71 71 71 0.12323714555599662 5 282 10 308 4 236
328 -10.628386899512003 7.4645252001309501 33.93633203064158 90 92 91 0.22537090546089308 10 310 4 238 5 283
329 -8.083837464390923 10.672747151028503 30.963902033461601 114 79 54 0.6099444767656591 8 205 10 208 4 254
330 -14.196772870237089 -4.2057594905523086 54.524626883743153 93 97 96 0.62208715877863052 7 395 4 269 3 352 8 369 10 360
331 -8.3044583339768376 7.2387264080865137 33.719981701012138 73 75 72 0.57197934685574736 5 419 7 421 8 327 10 377 4 357 9 418 12 481 3 463
332 -9.728040491478497 6.9890627000633723 34.062661006712055 22 24 23 0.36359337203971154 7 508 11 449 4 426 5 407 8 385 10 434 9 504 12 474 3 457
333 -4.735803384323849 7.1890461521680171 34.788869927503292 78 80 79 0.57037395348195696 8 386 10 435 4 427 5 408 9 508 12 475 1 414 3 458
334 -10.264250576931635 7.0478095076371252 33.995445007465214 26 26 28 0.32476941882518406 11 526 4 428
335 -11.457591745342285 7.1147069530246414 34.010628438473546 27 29 28 0.33163888466910174 5 411 8 388 10 438 4 430 7 512
336 -6.8036864120494798 7.2566360923497717 34.249402859753957 61 61 59 0.32309348234177016 5 413 4 433 7 514 9 511 3 462
338 4.3766691008812861 6.2154215804458444 34.138231485204393 14 16 13 0.6753093799524249 5 498 8 434 4 507
339 8.7269948480259618 6.4166176686315399 34.703913465570821 79 80 82 0.40139732297205716 8 492 10 559 11 514 4 508 5 591 7 668 3 518 1 462
340 -0.57284086854214067 6.8497545404143043 34.431288567565758 98 104 102 0.9596179529330513 8 440 10 495 11 521 4 518 5 503
341 -9.2314504979836318 7.058965083884055 34.3953577049801 20 22 21 0.3204504145656516 5 507 7 587 8 444 10 500 4 521
342 -7.1227778257593606 7.1694058176203344 33.76342809131117 59 61 60 1.0834691520540634 11 453 4 526 9 512
343 2.4755478201918963 8.9915110407516323 32.875078930781633 153 117 69 1.2274681075967533 7 518 4 537 9 525 12 495 3 468
344 12.047014954762069 6.3566414509249656 35.572183479362835 61 63 62 1.293278911315251 8 488 11 671 4 595 10 557
345 -11.500741538347665 8.9818429577220602 31.727277583706702 212 179 134 0.22213455971255272 11 610 4 607
346 -16.179302395769344 -11.224713324266792 70.114655070732681 55 57 56 1.3803086434500533 7 742 10 734 4 667 9 816
347 59.90596427045552 -145.40880324862923 227.66145915133848 12 12 22 0.98423495631827618 1 626 7 857 8 658 10 712 4 770 9 848 3 784
348 -6.767034488895284 5.5540894824845974 37.164007457879656 115 121 121 0.20299164911680473 1 133 11 70 9 78 12 55 3 57
349 -6.7670344888952805 5.5540894824845966 37.164007457879642 115 121 121 0.20299164911680251 1 134 9 79 12 56 11 71 3 58
350 4.8462094523424559 6.3714195720339015 35.479574307101174 38 39 41 0.37744594754306132 1 146 9 106 3 76
351 2.3996647251719283 6.3607687374920694 35.182577398143408 31 33 32 0.39933665514624611 4 60 8 46 9 112 12 84
352 -1.9160141531362451 6.3785766430393478 35.359548374466236 52 53 55 0.49495539485579082 1 152 9 115 12 174
353 1.769183756569729 6.7316268210487804 34.726824800186186 83 85 84 0.41025405326345654 10 75 9 128 8 68 12 102 3 95
355 2.1995203141101984 6.857614496245918 34.593167227749213 82 83 85 0.33025611804619792 1 111 9 136 12 191 3 177
356 -6.9551197005788987 6.6641557294507141 34.040237052533556 50 54 53 0.33542921650784657 7 111 9 139 12 192 3 178
357 -3.7778111811811623 7.1244809765616521 34.34543655517853 99 103 102 0.23289928897774961 5 118 8 96 10 97 9 143 4 83 3 108
358 -7.8660468286993206 7.305682985549578 34.03544051634708 75 77 76 0.40423216191436345 7 122 9 144 5 122
359 -9.1434978059810899 1.8569251922317498 43.500668375766132 84 90 88 0.32270316902738727 4 21 9 192 11 26 12 21
360 6.9552709305957663 6.3406936574487007 34.655902980960562 57 59 58 0.48163925383482925 1 148 9 210 3 78
362 -4.6733261440147 6.6762559835755884 34.2675565819996 5 6 8 0.33924241040488184 1 160 9 218 3 176
364 -2.8961189858439185 8.8245224861755958 33.155827366908149 168 135 90 0.23567030019019006 8 175 9 237 10 113
365 9.6490086647630395 9.4762672743358074 32.687284614317093 108 69 46 0.58694231339900915 10 189 9 241 12 216 3 193
366 5.1703142182565305 9.5669162469027906 31.909939895500962 83 51 30 0.51644827620060441 8 184 10 199 9 247 4 179 5 180 12 225 3 200 1 199
367 2.2530610448946029 9.6109869387962839 31.178132680037638 96 67 38 0.52032981602725881 10 201 9 248 4 181
368 0.91763386856976537 9.9125724924551992 31.59108426095521 80 51 27 0.44138999376475807 10 134 9 250 3 122 8 192
369 4.4103045051005996 6.5742625103176922 34.76043090975957 36 36 36 0.5727933828516103 1 228 9 285 12 272 3 246
370 -7.5140864379747656 8.5805309594404946 33.431951185911316 191 158 113 0.14452186915346177 8 277 10 249 9 298 10 314
371 -63.951213159581293 -148.5583446292012 237.30148002344868 64 64 94 1.0956250375257519 1 257 4 256 8 253 9 308 5 192 7 216 11 202 4 187 12 304 3 280
372 -25.29183044594923 -33.205114660354383 91.880560407274132 138 147 144 1.3400435023139097 4 327 5 249 7 379 10 347 9 320
373 4.1455843957206202 6.377906518361903 35.052644066034588 8 8 8 0.30224789622341175 1 280 9 344 12 326 3 309
374 2.6986972513162097 6.8541767651425562 34.900125540986615 68 70 69 0.46756048460737298 1 287 5 225 7 256 11 365 9 350 12 275 3 251
375 8.2675230466477974 8.9725959034563552 32.203149375541621 134 100 54 0.2604236170270447 1 249 9 362 12 347
376 -6.5053493407913452 6.8906149293194483 34.671277866790383 14 18 19 0.58840170556654492 1 340 9 415 12 394 7 414 3 374
377 -7.3066373634444126 7.4334120411751634 33.853296989298194 9 9 7 0.44560925340012703 10 379 9 420 5 338 12 400
378 -0.12239636636320392 9.0690675190237648 32.471898020098521 152 121 75 0.48880470487859168 10 386 9 428 8 333
379 -15.086776113124747 -38.028776267594445 97.993786441165057 185 191 189 0.53749879190805894 4 385 5 364 7 463 10 406 11 404 9 456 12 434 3 411
380 -21.187916329269701 -29.53115241668727 84.420932297230706 133 139 139 1.9097576036661525 7 380 11 408 9 458 3 347
381 9.4895643180543843 5.9156274399711233 34.337899228988903 16 18 17 0.33113639023737806 10 366 9 481 4 344
383 -5.4237887611635385 6.9216169386247994 35.150868261201872 12 15 14 0.35608987299481876 1 410 9 493 3 372 12 392
384 -6.9928965235180298 6.8941802061984525 34.236995184310437 16 18 17 0.30850146328114064 5 405 7 505 9 497 8 384 10 431 12 468 3 452
385 -4.1136665218242676 7.0900379659731971 34.361656368548829 52 52 54 0.59694640850907532 1 412 11 447 9 507 12 397
386 3.0639648483033777 8.5344309094782034 33.4798984442942 122 84 38 0.38078389762809023 1 420 8 397 10 444 9 521 12 404 3 385
387 9.6005022372422406 7.572407524538141 34.433217782661607 165 128 87 0.43644559009167905 1 468 9 606 3 527 4 598
389 26.377608150284996 -21.40198787440908 85.096114514931728 9 7 8 0.5831182224819399 4 588 5 577 7 656 9 658 3 584
390 11.310985957841742 6.3920043217765219 35.77248434323905 59 61 60 0.39736661786143579 1 529 9 673 12 626 3 594
391 9.7840258204831461 6.514179896814758 35.543826217038315 62 63 63 0.52652726774716396 5 590 10 558 9 675 3 595
392 6.3116747086714939 8.5749664852585532 32.108047636523906 147 113 65 0.83191166485428258 5 601 8 504 9 682
393 -11.974640106150076 -45.649360827698978 103.53547994813849 46 45 59 0.62582604627118454 7 730 8 546 11 645 9 736
395 -13.510508614130227 -30.008681225537426 89.82671654347233 63 68 64 0.38289684299906585 1 511 8 551 9 745 12 691
396 -15.160444521294753 -21.749543795231755 82.437525753786687 7 8 10 1.9710315631055753 1 516 7 740 8 614 9 750 12 698
398 -12.409092732323177 -42.772938808842333 103.65794527865806 166 168 167 0.4495457201443494 5 724 7 803 8 668 10 669 11 711 9 798 12 757
399 -16.23559708932671 -40.017251380002904 99.502176796588486 208 212 213 0.36461274989316722 4 723 5 725 7 804 11 712 9 800 3 740
400 -10.091183291903471 -15.005142001709441 73.526337162933942 205 211 209 0.92694254297743672 1 638 8 619 9 813 12 701
401 -13.86080852421116 -11.920379762957426 71.272228065912444 65 71 69 2.1084606963122718 8 620 9 815 12 702 3 680 11 669
405 -13.288334973491356 -39.590065383573638 84.651758692289121 200 200 208 1.5346380323450444 4 811 5 818 7 903 8 712 10 769 11 783 9 911 12 853 3 839
406 29.046979459380328 -21.468646582264792 84.398318688110066 207 187 150 0.72572461297624236 5 826 7 914 8 720 9 915 12 865 3 846
407 -14.063756551409464 -14.23633544396278 71.91567920308232 7 7 7 0.46267341720903826 1 677 9 917 12 869
408 -0.54584431538566403 6.6574190230754589 34.329978240504097 58 58 58 0.37714675534847375 11 112 8 70 9 130 1 156 7 104 12 106 3 98
410 -26.749985735917935 -42.329093078863359 103.89181533453444 11 15 18 1.1650166396679866 1 636 9 862 12 812 3 842
412 -9.1326621251143756 1.8521492606711834 43.470118409483604 108 113 109 0.23158225627241311 7 37 9 193 12 22
414 6.7245394291490186 6.3956341338015958 34.849454548983779 49 51 50 0.32478812403288265 1 93 9 113 12 85
415 3.2257521869894865 6.3701779663541842 34.899999327361087 43 43 43 0.16880808718674026 8 52 12 87 10 60
416 -4.8970291635405792 6.7091163667133067 35.117444972716761 177 179 176 0.35047581811481748 1 188 12 104 3 96 7 102
417 0.79077461734509946 8.5087705573953496 33.672860792641117 166 127 69 0.27079745962510698 1 195 8 114 10 111 12 127 3 116
418 -5.8038628165369044 10.294254834721484 30.502044815650635 109 74 44 0.63161313727806412 4 186 5 129 8 203 12 145 10 138 3 213
419 2.7248331325315562 8.9906331355067515 32.568370838049454 138 104 56 0.19515806124323051 10 186 12 211 3 190
420 2.3197436295886278 9.7285301661487349 31.226332895505891 119 86 51 0.93545345774901667 1 204 8 188 12 229
421 -7.3417874841582318 10.409050424612159 30.804092922177745 112 78 38 0.27791512411757752 8 296 10 266 12 235
422 2.4674774141037057 6.4300456696244037 34.900639444409258 9 9 9 0.31628543514533564 8 265 12 267 4 219 5 270 10 229
423 7.0904961948311964 6.4970525162185391 34.170695636701225 62 62 62 0.65250431895170513 5 219 12 269 7 248
424 6.4683284345927978 9.4325018058740682 31.85536173572795 96 60 34 0.96727443857744055 1 251 12 293 10 196 3 274 4 300
425 -8.5925611865886271 6.8898745763034048 34.987805143600312 57 59 58 0.62241366938478704 7 338 12 335 5 278
426 -8.836941102635258 9.1127578698135565 32.529043546310277 162 129 78 0.75799995627450878 5 237 12 349 3 194 11 248
427 11.755488716549911 6.0706285814525831 36.156942652236516 15 15 15 0.23670090124059306 4 408 12 452 3 438
428 -4.0732521787893488 6.68636075689877 34.122503718762012 19 21 18 0.48003834177471322 1 408 9 411 12 464
429 0.60670973376051829 6.8272329472303959 34.411234241853734 61 61 59 0.37110218683861335 1 407 10 426 12 465
430 -9.1953271440340654 7.0311714845856805 34.241720687967806 20 22 21 0.28611943982768639 7 588 9 506 12 472 5 508 8 445 10 501
431 0.23383762263820962 8.6560564156741826 33.05237816659961 118 76 28 0.19699772912918709 11 457 12 491 3 467
432 -4.9674332392088347 9.3500264591210946 32.708175932875207 207 175 128 0.65412019329695636 4 540 9 527 12 498
433 -35.001512429948342 -44.065379582797902 116.23603395614332 50 66 53 1.0988508470286602 4 727 5 658 7 733 8 549 9 742 10 616 12 609 3 663
434 -7.5924486502164896 -12.109649947947787 62.724400965965359 71 76 72 0.85890121640517925 8 557 12 622
435 11.766611054774872 8.4589031936318353 33.291172090757094 133 99 51 0.7306918562530077 7 745 9 677 12 629 3 598
436 -9.0248753193416142 9.6309305959448857 31.826076067100178 213 181 134 0.54432118496255522 5 683 8 568 10 630 12 637 3 685
437 -14.973849505076041 -41.670129079461063 97.796862365551092 121 123 113 1.0790454249879751 4 656 5 656 8 603 12 684 3 659
438 -13.420775391856431 -34.613875799276094 94.94837679303744 224 224 223 0.46817580501599843 11 648 12 687 7 640 3 664
439 -13.458605900853398 -34.703705000332086 95.263403560804747 224 224 223 0.30869632618386067 11 649 12 688 3 665
440 -28.999154293971845 -34.155769927335307 94.493355020325637 135 140 134 1.083066473486122 4 659 5 661 7 735 8 550 10 617 12 690 3 667
441 19.108983796945896 -33.656142126408383 102.79254163590447 184 184 182 1.1310876960863006 4 663 5 574 10 675 11 661 12 692 7 647 3 669
442 14.06477007691953 -27.244032486626871 87.549994739835071 55 60 56 2.4251711441810375 11 665 12 694 4 666 3 749
443 -18.016364861128782 -37.431696251967558 103.84949805739694 227 229 226 1.0100184949239381 7 810 11 717 12 760 4 730 10 672 5 729 3 748
444 22.971203087600426 -25.987207017592727 86.545306565491202 145 149 150 0.66354491804271387 4 736 5 733 8 610 10 680 11 723 12 764 3 750
445 -14.65919839696847 -18.865375146836193 78.639686695008507 228 232 231 0.56242462412453065 8 674 9 868 10 733 12 816 5 787 3 805
446 -0.19784873366012215 12.641730045956324 34.105426136492213 150 145 124 0.79049509586620059 1 646 12 820 3 758
447 -58.989362488951315 -188.12927539076901 251.13641843042581 119 83 71 1.0076985249176287 1 657 4 796 5 800 7 887 8 694 9 894 10 749 11 765 12 838 3 822
448 10.615641649242868 -48.095217889871684 111.98982458207344 212 198 159 0.88927140094069945 4 812 5 820 7 905 8 714 10 770 12 856 3 840
449 8.1406296733166208 -34.340757804844415 88.213888451433206 24 23 21 0.70185689138262863 5 821 7 906 8 716 12 857
450 0.066040885493341306 6.6042792508725583 35.149944284511449 12 12 11 0.56446244529887957 1 401 9 487 12 458 5 500 8 438 10 489 7 495 3 446
451 -64.403500308917643 -124.29827298016323 258.53832912207076 123 119 146 0.73972059534352663 1 312 4 376 5 357 7 449 8 354 9 447 10 398 11 394 12 429 3 402
453 -67.055139530461474 -121.17292187994103 257.89332936459726 143 139 166 0.7740091573241753 1 435 4 472 5 561 7 631 8 474 9 644 10 536 11 572 12 602 3 491
454 5.0594073411540945 5.1724722095495812 68.543963333910071 6 5 4 2.3739854633050332 8 138 12 30
455 0.63243222828989598 6.4485863655389917 35.144754792257864 35 37 36 0.39698368419731739 1 105 4 62 3 84
456 -4.5144829545196723 6.7082804819305171 34.707397453376302 44 45 47 0.21372286528367371 5 166 7 189 12 108 3 99
457 -0.78388514224009886 7.9957145841163637 33.307863793465522 179 145 100 0.14798149870253577 5 174 3 113
458 -1.6118950007318873 7.0494658136911017 34.783902062548769 129 131 130 0.33231080645228922 1 191 12 113 3 182
459 -0.08383701484724343 10.011304705939006 31.702350068554122 110 75 47 0.59291409327986522 1 206 8 196 3 208
460 5.765046131355537 6.222164273246789 34.922232329584581 37 37 39 0.36290226582944518 8 142 9 206 3 239
461 0.84315364571983265 4.7335268773331522 24.938858362194022 6 8 7 0.26033203555513224 7 97 3 245
464 -8.4312258254578829 9.2238784762922403 32.690186098957199 185 153 104 0.6771655012157648 5 239 8 240 3 272
465 -2.0453741365407918 7.0788531115049134 34.834945276752364 63 63 62 0.24704482143878004 1 341 7 507 3 376
466 -5.9529869165330735 8.7844423011033719 32.477045271830299 192 157 109 0.11362046725248483 10 382 12 406 3 389
467 -14.586379898803061 -34.043278592453895 94.413233665729237 182 186 185 0.37456295280525048 7 464 11 406 3 415
468 -14.586379898803061 -34.043278592453895 94.413233665729237 182 186 185 0.37456295280525048 7 465 11 407 3 416
469 -1.7549014067174789 6.930314577159657 36.169357701921257 20 20 20 0.3634964931571027 7 497 9 490 12 462 3 449
470 -10.424675468473399 7.1536517453382853 34.534906798307652 20 21 23 0.45703600344738077 7 509 8 387 9 509 3 460 5 410 10 436
471 9.044470692292947 -2.194370498224433 67.199873332440077 13 13 13 1.3375411733252385 11 670 3 509
472 -67.234422912667043 -148.86935991191763 239.37875056061182 126 123 152 0.70709648996521357 1 495 4 644 5 643 7 719 8 538 9 727 10 601 11 636 12 677 3 650
474 0.091947864988714781 40.519078057368112 99.025333059127817 36 22 13 1.699642357573893 1 683 5 827 8 680 9 878 10 776 12 878 3 853 4 787
475 -2.8359120797359867 6.6347985991058973 34.630078134915649 4 5 5 0.32101793226631276 8 225 10 238 7 254 5 277 3 250 1 235 9 348
