# 3D point list with one line of data per point:
#   POINT3D_ID, X, Y, Z, R, G, B, ERROR, TRACK[] as (IMAGE_ID, POINT2D_IDX)
# Number of points: 402, mean track length: 3.7768987341772151
156 -1.766962905064394 -5.3928475874728683 14.544258831237171 61 152 219 0.83672640369512141 21 333 20 362 10 459 18 560 16 882 19 434 12 817
158 -0.87894171466840321 -4.4131611416647338 14.691548289523979 63 68 125 1.5618931907528362 23 632 20 366 16 1061
159 0.017175786207996591 -4.3192328367835282 14.940657096175903 30 45 80 0.19781275394161427 21 334 23 510 20 367 10 463 19 536
160 0.018761222771640218 -4.3197942592987282 14.940947679821916 30 45 80 0.29239257889395448 23 511 20 368 10 464 18 690 19 537
161 -1.0761996091067414 -4.3765692138528012 14.933461774133226 40 67 116 0.58518736061087995 21 439 23 633 20 369 10 573 18 691
162 -0.013860895032042575 -4.147008278931362 14.969038879718935 22 27 40 0.64322529714144938 21 237 23 515 20 370 21 337 10 467 19 447
163 3.9452542605927787 -2.8544874405794034 13.163021309512228 67 93 82 0.93794107972398433 21 340 20 372 19 451
164 3.824372061071311 -3.7246365807579775 16.286240397701349 62 95 84 0.37830984577748999 23 640 20 373 18 578
165 3.2354021747009654 -1.6424999345479017 14.654928293492695 123 124 103 0.76957191697185023 21 349 20 376 23 524 10 471 19 558
167 -3.6245996195158328 3.229012248995351 5.5873257573572426 220 192 169 0.35432996184593213 21 265 23 683 20 416
168 -1.5527372277774494 3.7663770343156053 5.0465476437121612 144 119 95 0.51251811752967025 21 281 20 424 10 532 16 806
169 -2.0644465606031521 3.8101802590093508 5.1190964455294008 119 92 71 0.95701615984002919 23 686 20 425 10 536
170 -0.14377459580709068 4.0784834171745494 4.6802147257076161 146 124 103 0.55410601316900854 21 397 23 690 20 426
171 -1.4623108771691138 3.8660832952551263 4.8346486587301385 128 102 79 1.6320317940535611 23 692 20 427 10 643
172 -2.1143641966162154 3.8096432781991454 4.7695265563245197 150 127 104 0.6223110356946262 23 695 20 430 10 650 18 840 16 1159
173 -1.2973323523756051 3.94952818495066 4.6206392242576264 132 110 86 0.38608345978557895 23 609 20 432 18 655 16 993 15 779 12 488
174 3.8521423862803017 -5.0672639924823928 12.92233838850775 77 81 93 0.86172802662968573 21 430 23 626 20 453 19 620
177 -1.0546582944134264 -4.5247840220968216 14.767146988319618 167 105 214 0.8404707157960537 21 437 23 630 20 463 10 567 18 683 16 1208 12 1188
178 -1.2649940265288064 -4.4819274338337953 14.81442782043127 19 33 61 0.83487277378324642 10 570 23 504 18 686 16 1058 12 995
179 0.5056043618209608 -4.3423913788077888 14.887891305350344 89 93 140 0.36353758365175037 21 440 23 634 20 465 10 572 19 631
180 0.50436066934448165 -4.1942945422290148 15.092292629101825 104 156 202 0.55452832482546088 21 443 20 468 16 1073
181 -0.8790986235966739 -4.2566457332983578 14.895201286936686 126 178 215 0.31543452428779195 21 568 23 734 20 469 10 680
182 2.8573675879344287 -3.6151883823961999 16.868956948076136 53 85 72 0.13335823339057082 23 738 20 470 18 782
183 4.3109449466251846 -2.5363540147975971 13.679986449933343 60 93 74 0.7811444118563502 21 571 20 471 19 639
184 3.1856903197797517 -2.6785259875732303 14.31952896740844 56 85 67 0.21031796205891184 23 643 20 472 10 695
185 3.1856903197797517 -2.6785259875732303 14.31952896740844 56 85 67 0.21031796205891184 23 644 20 473 10 694
186 2.5143089345019085 -1.8544285495424424 14.364878340231343 12 16 19 0.85510751748803171 21 579 23 746 20 476 18 789 19 653
187 -0.65440731171030342 -1.904270714682913 13.346151904826543 82 100 112 0.30807220089735143 23 648 20 480 10 697 19 641 21 575
188 -2.1787966617800967 -1.9964916247451316 13.254312555250351 131 145 158 0.25191315353647126 23 646 20 481 10 590
189 -2.3735576340316662 -1.8348260219770325 12.959579296403009 28 40 51 0.57935874843739155 23 651 20 485 10 594
190 -3.6605815201927703 -1.7122952802781419 12.334783489617049 88 107 121 0.53081983301017432 23 654 20 490
191 -0.63108357572059293 -1.1728308048162954 12.085304976478435 70 88 100 0.5154986163244657 21 471 23 658 20 491 10 603 18 696 19 556 16 1098
192 -1.5725340563071772 -1.2338353547650682 12.047898238695964 68 85 100 0.48392683582957507 21 469 23 529 20 493 10 605 19 553
193 -1.3401017290401631 -1.177688830421161 11.957472962636167 50 64 77 0.39042409294253783 23 757 20 494 10 710
194 -0.10022582118358178 -0.42310023719622697 9.7693495625417839 30 44 57 0.53269507965016127 20 499 19 669
195 -3.0827682281249835 -0.93323774983035523 11.318112681159072 113 129 142 0.42385878813601874 23 665 20 503 10 615
196 -0.10253022981285437 -0.27554105526931155 9.703807889811106 221 240 246 0.80743419250545789 20 506 19 566
197 -3.9678773848989808 -0.9590650091660502 11.263954872196676 76 95 110 0.53442569772881043 21 588 23 766 20 507
198 -1.347855377386455 0.077622049810320129 10.444802744738256 168 197 215 1.7263272153990221 21 605 20 515
199 -3.5569973664121934 3.2437177734838496 5.501719019493593 196 93 99 0.67917573909200935 23 790 20 526 10 737
200 -3.5570675879813547 3.2443058133701945 5.501660732479948 196 93 99 0.61586695209128262 21 499 23 791 20 527 10 738
201 -2.1785621377892985 3.7921302030528223 5.0936258583946046 122 95 74 0.46969494676357137 23 688 20 531 10 645
202 -0.36147010095208865 4.0834666857538346 4.4886642746730878 105 83 60 0.31129113875790509 21 525 20 535 15 1186
203 -4.0065462481831711 3.6304821191465377 4.7653664430332672 147 122 99 0.75532996392358565 23 703 20 541 10 747
204 -1.6231782443750475 4.3470035389046036 3.8423863146480177 135 113 90 0.88009062613554345 21 548 20 560 12 903
205 1.0683038970829899 -5.9316925083224472 14.602381735564865 71 134 195 0.5435616625381503 21 554 23 817 20 573 10 755 19 616
206 1.1957139497276437 -4.8180189409571126 14.906952033133535 41 72 126 0.75649243846120895 23 732 20 581 21 435 10 678 18 772 19 531
207 0.95841249649961602 -4.6205653730965581 14.922325270256689 42 59 102 1.4295307252837002 21 565 20 582 19 628
208 0.90591311642324268 -4.1299934585204356 14.899280803828637 130 174 201 0.45128262005748015 21 655 23 736 20 584 10 683 18 866 16 1311 19 715
209 -0.18515670878283397 -4.210379312461014 14.888563806360711 130 179 223 0.42601835636343083 21 442 23 635 20 585 10 574 18 775 16 1211 19 632
210 -1.3229335022266415 -4.2891715899431011 14.83672926537073 145 195 234 0.67370295080633447 21 652 23 828 20 588 10 762 16 1210 12 1373
211 3.0128810015848129 -2.1957208686803491 14.797437157183181 12 18 14 1.1360750470587622 21 671 23 741 20 590 10 772
212 2.2834623533082548 -2.108887243531 14.392439086436429 52 65 72 0.48202538124777594 23 645 20 591 10 584
213 -1.3539547303088098 -1.9514493218424176 13.321368599604597 95 113 125 0.4429287475221485 21 574 23 647 20 594 10 591 19 637
214 -3.0208410896483802 -2.0693966417958309 13.289702086487925 112 130 142 0.73197263861402484 23 745 20 595 18 878 21 670 19 722
215 -0.074534951472283617 -1.2825880690940421 12.301732779349203 29 39 48 0.19921650755859485 23 850 20 597 10 704
216 -1.9915744899714647 -1.4223433396143539 12.301297538177629 30 40 50 0.59158044126943965 23 752 20 600 10 706
217 -0.31901986853525854 -1.1287698692774484 12.067463737687325 49 65 78 0.40965832229926735 23 758 20 601 10 709
218 2.0790577173437712 -0.67986462657071245 12.186067856480298 60 74 85 0.82963290520840793 21 597 20 604 18 805
219 3.087693058714402 -0.5672658771271244 12.504055708154576 174 164 158 0.78989680217848901 23 768 20 605 21 598
220 -3.4057719737154577 -1.1638490974064106 11.965804480902154 28 42 54 0.46639116763187588 23 761 20 616 10 784
221 -3.0796960993607203 -0.67994940125804693 10.878946234177549 21 34 43 0.66530524426070636 23 862 20 621 10 788
223 -2.3299163833708181 3.4320937764757602 5.2875432184408346 197 173 147 0.6022369047595898 23 878 20 638 18 900
224 -2.3209313130891589 3.4555740250378384 5.3180034737259962 197 173 147 1.0180647328035208 23 879 20 639 10 799 16 1266 15 1336
225 -2.9442284546457609 3.6500648630085615 5.1807741552852846 155 130 108 0.32609819653156608 23 880 20 640 10 807
226 -2.0045000854113892 3.8595575489497138 4.6816597757312142 131 108 84 0.57361917484330738 23 888 20 644 10 810 16 1362 15 1341 12 1312
227 -2.5639312662425073 3.8132302540571898 4.7242870615630714 131 105 82 0.40903428692738347 21 617 20 646 18 907
228 -2.3494371857870324 3.9431767237767263 4.4740598685501602 142 120 96 1.0415774343864204 21 622 23 890 20 650
229 -1.7358713263970733 4.0836594632658931 4.3107508842159721 168 146 125 0.62119919401435364 21 625 23 798 20 653 10 744 18 912 16 1282 15 986
230 0.65588831847006113 -6.0145258258531715 14.711800963971706 68 137 197 0.74194164074450519 21 644 23 716 20 673
231 -1.7756366652589417 -5.2616559922596426 14.681228088342216 25 37 73 0.69953714369999531 21 560 23 723 20 681 10 758 16 1299 19 704
232 -2.0810552682693024 -5.1304065838451001 14.6009593681711 61 147 221 0.86594267548004333 21 649 23 823 20 682 10 822 18 920 12 1467 15 1635
233 0.74846578404053232 -4.4312037843606111 14.89618343205022 183 206 224 0.36737681525481602 23 827 20 686 10 760 18 863
234 0.26239753482658706 -4.2433829153038731 15.081379324257229 114 174 219 0.53245496824079108 21 653 23 735 20 688 10 681
235 -0.75487588914788495 -4.0400313263762895 14.884541714396583 13 14 19 0.96097816372833778 23 834 20 692 10 684 18 869
236 -0.35100885424055639 -4.0807790912694344 15.050139089850802 10 13 18 1.5655942247091796 23 737 20 693 10 685 21 446 19 633
237 -1.1488440899297419 -4.1083901170437347 15.097887779084974 10 13 18 0.7628991969287231 23 833 20 694 10 764 18 922
238 4.2365008934689365 -2.8258893421369926 13.393263149333968 126 146 134 0.15485997793144499 23 839 20 696 18 872
239 4.6389602535481131 -2.6411335836137453 13.738620477338497 20 43 33 0.73067077140054515 23 841 20 699 10 769
240 4.149599028868046 -2.6541584396954798 13.921505587222109 30 50 38 0.80177346111355074 21 663 23 913 20 700 10 840 18 928
241 3.0918839710826416 -2.7067199603395946 15.51596659645873 38 65 50 1.439808870743345 23 916 20 701 10 842 18 933 21 667
242 1.8480166625890422 -2.2628321208038824 14.285777578823167 34 44 46 0.51976868331259507 23 845 20 702 10 771
243 -3.8362214908642369 -2.0492129702869901 12.631966605966905 101 119 133 1.8376757475461041 20 703 19 720
244 3.7970186392244578 -0.49274201170986281 12.497245886603384 123 106 94 0.89173462432685746 23 859 20 705 18 887
245 1.8283178180676325 -0.34383338743785752 10.945616915563559 15 18 23 0.56304409178736692 21 688 20 706 19 780
246 -1.7552344667919235 -1.0149578163317243 11.924718932441296 20 30 39 1.3536496105729834 21 673 20 707 18 884
247 3.4330645753735438 -0.17145593064240727 12.158209835773663 200 197 190 0.78260058656690712 23 864 20 708 18 940
248 -3.2707922393025863 -0.49713079774458951 10.257826737420171 71 93 107 1.1888090413266319 21 683 20 711 19 776
249 -3.2846673573028906 -0.50720769144127864 10.555843239831958 71 93 107 0.48953732018464163 23 867 20 712 10 859
251 -3.7318935703371094 -0.5568488954632429 10.572984067598203 72 91 106 0.21388959458108006 21 682 23 923 20 714
252 -0.3602128306363227 3.509698770645846 5.4166117662215241 207 183 157 2.0111415130517871 21 738 20 723 19 817 12 1509 17 1240
253 -1.1362891607552332 4.0559060175141637 4.4462881729940369 161 140 119 1.1357037149340763 21 703 20 730 18 909 16 1368
254 -2.3366102552787957 3.9897088804720497 4.3746622878179933 181 160 139 0.30115143673826134 23 891 20 734 10 813
255 -0.99670887037196321 4.3463850716643426 3.8801002805595419 133 110 92 1.332061642067156 21 712 20 737 15 1362
256 0.49578850034428595 -4.664188042397913 14.982589574640631 36 50 97 1.4640324835776584 21 651 23 826 20 759 10 824
257 -0.53694247147969232 -4.2363196313012361 14.83471162708426 145 199 230 1.1818862860882098 21 720 23 831 20 762 10 763 16 1310
258 0.65444031766243815 -3.9819683670744106 15.144074624017341 11 11 16 0.72795640231288239 21 721 23 905 20 766 10 891 18 923
259 0.76905998829416811 -2.740837738239954 14.698723587635042 6 7 11 1.5168070497821775 23 843 20 770 16 1313 21 665 19 721
260 0.37150498266087201 -2.6882873079126792 14.895227351017674 90 108 122 1.698254254178462 21 727 23 917 20 771 10 843 16 1435 19 804
261 4.7400312977869499 -1.9711155887357756 14.272943491642669 14 20 14 0.87461960734830291 23 962 20 772 10 844 18 976
262 2.1190936321662126 -1.7924415894343797 13.768528650499972 13 13 16 1.6338128712115119 23 964 20 773 10 846
263 4.5491198325603319 -1.1233164224879413 13.579218344130485 26 27 29 0.31676065711520723 23 919 20 774 10 848 18 981
264 4.5491198325603319 -1.1233164224879413 13.579218344130485 26 27 29 0.31676065711520723 23 920 20 775 10 849 18 982
265 -3.6609868677848869 3.5747803220765682 5.2712798696473691 175 150 128 0.69126986252621536 23 933 20 790 10 909
266 -2.5220971400549832 3.9133880253952813 4.5130153948497522 126 104 80 0.64233541697876428 21 744 23 981 20 800 10 914
267 -2.904241945597752 -5.5636484570258382 14.682594789504865 22 29 58 0.77815813432744263 21 763 20 812 16 1432 15 1708
268 3.77260382489479 -2.9631625711496206 13.801638194040118 112 136 123 1.3761235901996181 21 770 20 818 18 972
269 3.3884904884267404 -2.7337715913861116 13.892672963919265 32 54 41 1.7044469337314141 21 773 23 960 20 819 10 839
270 3.9950981534682946 -2.0026644722443234 14.597783526196682 29 36 27 1.8355137336054321 21 728 20 821 19 828
271 4.7029554046714184 -1.5558326157865532 14.312915224690906 195 191 179 0.34248747601712415 23 966 20 822 10 899 18 979
272 2.8586218251054696 -1.709469411102214 14.369529444890825 204 200 188 0.93377982737355747 21 808 23 989 20 823 10 927 18 1017 19 829
273 3.8013860721348669 -1.5203493614445356 14.363781354533877 181 182 166 0.46335138128129538 21 810 23 968 20 824 18 1019 19 831
274 -1.1003232979526389 -1.4822081678513774 12.439435042152331 31 39 50 1.2015576208399334 21 807 23 990 20 827
275 3.3780660145244883 -0.91082444887837943 12.890184425184206 14 14 16 1.1946149720646027 21 779 23 970 20 828 19 810
276 3.3346406618504711 -0.90088748246315253 12.799132856870164 14 14 16 0.99560880056649947 21 780 23 971 20 829
277 -0.76816000164113374 4.2314314436743885 4.1861851226111977 82 59 43 1.2859181856750657 21 794 20 838 18 1036 15 1682 12 1444
278 -2.8515312180447361 3.9202197645066179 4.4162318716091002 149 128 106 0.73296768131826706 21 791 23 1001 20 839 18 1037 12 1427
279 -1.0799682085190381 4.3349154251743718 3.9630118196931163 71 52 38 0.82441626438757309 21 799 20 840 15 1597
280 0.83761341613260665 -4.3634529185458799 15.029991960237322 159 186 205 0.38100002068950012 21 805 20 849 18 1013
281 3.7999747582973811 -2.0228518400787672 14.413912001837309 26 36 27 1.8137592719309521 21 806 20 850 23 963 10 898
282 1.9471284853914845 -2.3015983273184442 15.666591524344286 119 135 148 0.78877618440175645 23 987 20 851 18 1015
283 -1.5755416090142242 4.113353123134222 4.2207179289155681 175 154 133 0.97289043844511214 21 821 20 867 16 1499
284 -1.5758213054426169 4.1187578344366615 4.224875706586686 175 154 133 1.0570209062351392 21 822 20 868 16 1500 15 1674 12 1519
285 -1.0631183879019486 3.8239715842080568 4.9699292256242851 110 84 50 0.39543361546939132 23 82 10 57 18 84
286 -0.50218095351327352 4.0045408701049769 4.8860439460447616 75 63 51 0.18905281676321417 23 197 10 58 18 96 16 329
287 -1.1733060635246355 3.8486814691845126 4.9842654856788293 112 88 64 0.44141972886830277 23 89 10 61 18 91
288 -1.1768876460225752 3.6486179206735776 5.1468798023968283 182 153 123 0.53010852074934478 23 152 10 128 18 286
289 -1.3488732176988369 3.6282415476187921 5.1542427498218606 183 157 124 0.49283221900629154 23 59 10 130 18 158
290 -0.9357967595900053 3.7674879714403495 4.9756719232328397 183 156 126 0.5357499614768183 23 264 10 132 18 296
291 -0.44612168280889614 3.9704540953822076 4.8827468034840624 101 71 46 0.38969509512191036 23 87 10 136 18 203 16 145
292 -0.94015705102318148 3.9428315309291939 4.9126471688758357 110 90 67 0.30598405330954226 20 64 23 288 10 144 18 216 16 138
293 -2.0851546509535912 3.6980928133408248 5.118468538204028 99 67 42 0.20408470574966295 23 88 10 155 18 85
294 -2.0359380481223179 3.7186390567733003 5.1209199747220175 119 84 56 0.32921685965278924 21 32 23 192 10 156 18 199
295 -1.7828090303504029 3.8259713606777073 5.0831915651042783 78 56 44 0.57537809151202524 23 203 10 158 18 330 16 443
296 -2.5510711223306801 3.6394343726753333 5.2317194166650429 104 73 46 0.56153670001282052 23 190 10 162 18 191
297 -1.0821103281474245 3.9488766683639609 4.6712716576928317 116 94 67 0.241949439578693 23 295 10 163 18 344
298 -3.1258808211249058 3.588378940940959 5.2906978675360996 76 55 34 0.62891452398932657 23 195 10 169 18 319
299 -3.1843399847824654 3.5676528551982249 5.2893081987355703 72 51 36 0.67911896575620612 21 67 10 170 18 204
300 -1.0691182579331393 3.415873292803874 5.5405713392711382 182 156 123 0.58778124121423281 23 253 10 233 18 152 16 421 19 241 17 282
301 -2.5381863926765273 3.102706368210014 5.8298952218269351 185 157 127 0.20245565433129142 23 251 10 235 18 150
302 -0.76731367993250188 3.8147093185125591 4.9451885750565161 130 104 71 0.44573766786032687 23 270 10 238 18 305 19 358
303 -2.6321010380306364 3.6696398767488962 5.2065751690111108 70 50 39 0.47190215357038318 20 104 10 257 18 323 23 198
304 -3.3873563513722966 3.4865166835210446 5.3539927650049908 117 91 56 0.1471709723128648 23 273 10 259 18 311
305 -2.5759372009106443 3.6959927759565883 5.1406311866710093 97 71 53 0.14562577624522088 23 291 10 261 18 335 16 246
306 -3.2242855599962472 3.5791566414224487 5.3013971319661524 87 61 46 0.88449792987772524 21 68 23 282 10 264
307 -1.6944687973045833 -0.067971004043136232 6.7225404824351322 205 229 238 0.9781405572707399 23 432 10 294 18 484
308 -0.66841690356236494 0.083314219642731821 7.028375454681826 38 47 56 0.48740949569262648 23 435 10 296 18 487
309 -0.4642022716369345 3.8715456983174241 4.9033819018067222 136 107 75 0.6284632153828954 20 137 10 321 18 405 19 424
310 -1.044118913908219 3.8561167003194874 4.9637874646744695 122 94 59 0.62888220849574283 23 377 10 326 18 412 12 486
311 -1.951306806018867 3.8756889040786011 4.6874356172759892 105 81 55 0.2984707617129535 23 394 10 351 18 438 16 656
313 -3.2847715064420164 0.062819959278445692 9.7493773496814633 53 63 72 0.62033317224459605 20 294 10 395 18 492
314 -1.3979689609202737 3.7758222961177488 5.0131455647846286 126 96 70 0.25497026926332977 21 283 10 432 18 636
315 -0.62661398117347844 3.986492890609687 4.6312059727322294 89 63 43 0.59602345552595304 20 219 10 436 18 653
317 -1.9698411182107343 3.9012417737532461 4.6234851964816368 127 103 77 0.48440199917746246 23 488 10 450 16 659
318 -2.7021473689775553 3.2449681227093694 5.6067971746377188 232 152 75 0.40995283774125957 23 581 10 523 18 625 16 610
319 -2.7011449430235457 3.2504558214004531 5.6173500204558069 232 152 75 0.4073657034491413 23 582 10 524 18 626
320 -2.0268464070586583 3.6197866155301028 5.1327282179489861 135 109 76 0.62541590615268705 23 588 10 531 16 795 21 274
321 -2.0443141422907574 3.7878075152486304 4.8807240147716158 112 85 58 0.31842971967558914 23 485 10 541 18 529
322 -1.0430227920754209 -4.5550515666353064 14.851417249497501 154 97 200 0.46811015331646538 23 631 10 568 21 438
323 -0.39196328295191585 -1.9021754251380505 13.434033367940176 63 73 83 0.39538006558916627 20 478 23 521 10 585 19 643
324 -2.0138622398971417 -1.6473836746554245 12.695731986974181 54 64 73 0.43445772273671424 20 380 10 595
325 -0.59321070168120416 0.15937389948869862 6.8653234284398321 12 16 19 0.071226317621689933 23 558 10 623
326 -0.92143261135292687 -6.0621284252935803 14.517437373263865 58 131 199 0.94913852476503013 21 553 10 664 16 1195 19 613
327 -2.3657020971878868 -6.054026869324586 14.626432087215726 29 60 115 0.89880280785531441 21 428 10 666 18 763 16 1196
328 -1.3017291401330571 -5.4018910905191699 14.604455994598293 60 141 211 0.47547989876816432 23 721 10 672 16 1200 19 617 12 1185
329 -1.0298968024944788 -5.3749857052799612 14.60732948596784 61 139 205 0.55618882152454507 21 646 10 674 23 821 16 1202 19 618 12 1187
330 5.6701935548279003 -0.8136390890265417 12.868760836592731 144 160 170 1.1929047075923773 23 760 10 705 18 800
331 -2.8130532389231737 -1.4751880719604871 12.305739231170206 18 27 32 1.5257101165214213 20 603 23 751 10 707
332 -2.1080733164854615 3.8786802954841937 4.6540188557523434 166 144 120 1.2422270028785662 21 516 23 698 10 742
333 -1.626815927388102 4.0252244716823302 4.4601763516939616 135 113 90 0.82841474472818377 23 794 10 743 16 1178 15 1174 12 891
334 -1.3353168163040001 3.9110774697266879 4.7000835611498459 113 89 61 0.97415350394887423 23 883 10 802 16 1363 15 1344
335 3.3794249237064653 -2.7484062889893228 13.882916096146982 35 56 37 1.7399044303804831 21 772 23 959 10 838 19 825
336 -1.2811835901965254 -5.7626218629814865 14.555758920173895 25 48 102 0.73763374006682392 21 762 23 948 10 881 18 964 16 1478 12 1598
337 4.7093384056102332 -1.5593544177935335 14.322469215546183 188 177 159 0.29158373248537411 23 967 10 900 18 980
338 -1.8392420053741909 4.1054159101656538 4.1631587778346786 98 74 50 1.8860785716840969 23 1002 10 916 20 804
339 -1.5491776611105386 0.11978639380749614 6.8988049615646405 2 2 4 1.7759530817695919 23 994 10 932 18 1024 21 782
340 -3.5093905522987088 3.2252076827035858 5.532702536465794 209 189 165 0.87640214622833701 21 266 20 192 10 431 23 357 20 131
341 -1.8576394269804064 3.8183274774268505 5.0948095710758716 50 42 27 0.094222245796795945 10 159 18 98
342 0.30242478335146777 4.1369690834178412 4.7152139446750958 88 73 55 0.7938874626199337 21 52 18 99 16 343
343 -0.13072902834656089 -0.28267989222783124 7.5851743872508068 55 64 73 1.3854872608054432 23 97 18 111 19 187
345 -1.877291488035898 3.6976427641519538 5.1025910414904638 155 131 103 0.21518595096824958 10 145 23 81 18 187
346 -0.0044893657438228596 3.9993004455201113 4.8294627353964961 95 74 47 0.36528999477821006 23 184 18 189 16 334
347 -1.295109104492941 3.8062963622519383 5.0160660757537494 104 79 49 0.33621639681565152 10 143 21 38 18 193
349 0.98099183480240348 3.340558893648331 6.0986272778448436 111 87 56 0.50545821398156054 21 100 23 250 18 272 19 220 16 251 15 243 12 37 17 446
350 0.24939574716735441 3.5218536142262145 5.5444852054430944 189 165 137 0.5073633376497394 21 105 18 274 19 341 16 638 15 542 12 234 17 640
351 0.47605197663583348 4.0822687924905878 4.7575730619216658 118 95 64 0.64795992301799998 21 125 18 313 16 703 15 331 12 308
352 -2.0322284994048956 3.8545772613752076 4.6952239011612349 136 115 88 0.57468713791290538 21 81 18 349 16 458
353 -0.63396917259476926 4.2059645498512879 4.2386359216563454 87 69 55 0.49325041698398725 21 91 18 352 16 345 15 105 12 295 17 519
354 -1.736677371380118 -0.05937558870060948 6.6982428605520283 35 39 44 1.7109653969367926 21 143 23 321 18 363
355 -0.007644263744255253 0.13496319637563797 7.0359626836893794 7 12 16 0.83558121657192164 10 87 23 225 18 365
356 0.23114608858319879 4.0430717704349979 4.7734445341959528 115 91 63 1.0447388349411177 21 192 18 410 12 726
357 0.36524179928651918 4.136144236463263 4.7678570342492756 53 34 20 0.83727745549862664 21 199 18 414 16 1014
358 0.32236841422238399 4.1307844324424909 4.7354010398631186 204 202 188 0.3525553290248748 21 201 18 415 16 704 15 326 12 307 17 693
359 -0.17732295393199854 4.0547072202842545 4.5626291150233396 93 75 51 0.37997528309622763 21 208 23 390 18 432 16 854 15 579
360 1.0357906399802213 3.3184938032753704 6.1101070293355386 133 108 76 0.94048750034954265 23 461 18 504 19 396 12 693 17 760
361 1.1968231066592634 3.3767239986299904 6.0648481796763907 138 115 84 0.82639343916638197 21 263 18 505 16 974 19 490 15 987 12 886 17 764
362 0.027508734907862986 3.9138424567172811 4.8460706602059966 201 177 149 0.40735395967038335 23 464 18 509
363 -1.7077810242395062 3.9232275184244108 4.6496952861960485 117 97 70 0.57733905493022242 21 291 18 535 16 478
364 -2.5598448858105884 -6.0179908277122065 14.464822267498215 44 99 166 1.0023287835896917 23 494 18 556 16 871 19 430 15 1086
365 0.44398295762650014 -4.0292037747277876 14.961955348810433 20 11 24 0.5581663684548489 23 517 18 577 19 449
366 -1.2554256081512576 0.14624577700003399 6.7830215567713017 7 7 12 0.53764632137843582 21 256 18 603 19 380
367 0.87731288328386559 2.4338944826585234 6.0192395021924217 55 69 78 1.4627343366735266 21 497 18 618
368 -1.2455745998212291 2.3502209635908349 6.6625790288261042 0 0 0 0.92990911439351298 21 380 23 455
369 0.015667830429215601 4.2755407535517573 4.1969253032058109 106 86 61 1.1441163179920923 21 316 18 666 12 735 15 1014
370 -0.078284138558726346 4.2697615516450309 4.2086033427772715 111 91 67 0.41061756431013086 21 315 18 667 15 829 12 541
371 -0.097349672966349055 4.3618103672908157 4.0579229998049691 42 28 17 0.42735047854797298 21 419 18 671 15 1023 12 927
372 -0.95973390087250265 4.2308130779468964 4.1258226331701424 75 54 35 0.80658451013751797 21 414 18 672 12 723
373 3.6582896116782453 -4.3254059796989681 12.949463397939118 126 123 122 0.67354427322137012 23 503 18 681 19 534
374 -3.3118746380221782 -1.3628096068581166 12.05625286268782 78 94 107 0.48461852999340826 21 464 18 801 19 644
375 1.384221790652632 3.3936742685288648 6.0497594153557186 123 100 68 1.4515722456824807 21 498 18 831 16 1272 15 1349 17 1150
376 -1.7116782729617821 -5.5935072885849069 14.628618882106091 47 133 206 0.23979229462613164 18 1011 16 1480 12 1600
378 0.15525295429179697 4.1210787194029344 4.4956463034455183 153 135 113 1.7229126130227321 21 820 18 1030 12 1578 15 1736
379 -2.1336975267325302 -1.8540099392646343 13.122878873045394 40 54 66 0.97523213081202975 21 245 20 378 18 469 23 407 10 367 19 455
380 -3.4043446939315456 3.5498498904282418 5.3170966812359381 87 63 45 0.72795395298040455 23 477 10 443 18 523 21 107 20 150
382 -0.31488595266879471 3.1886277765427362 6.041773866539323 149 123 96 0.2890232050213416 18 56 16 239 19 71 17 280
383 -1.0585543004522009 4.1493577964952326 4.2826037135375898 92 66 43 0.3288357753232376 21 130 16 516 15 85 12 73
384 -1.0833989507552615 4.1679048575744826 4.2595874542275487 103 79 52 0.37512024699643476 21 132 16 519 12 275
385 0.53550894137218241 4.0949239324357682 4.7543726044258889 141 115 89 0.85934451581055993 18 409 21 196 16 525 12 312
386 -2.4017275945750907 -5.5449314554203823 14.493050713512201 46 128 196 0.51809179828557783 18 462 16 539 15 941
387 -1.6771205296350211 -0.016907791561824884 6.7566469445704875 24 26 32 1.2165315548622688 18 366 16 563 19 376 15 952 17 549
388 -1.5786084501505484 4.0154617901116643 4.4922729728143196 122 98 72 0.64399647490473788 18 545 21 305 16 675
389 -2.411659555490886 -5.2138500398865553 14.655204196223636 55 134 202 0.19035593129137296 10 362 16 727 19 363
390 -0.47787264195758195 3.4620091876092207 5.5557552994122092 191 164 134 0.52569992332444149 18 389 16 798 19 404 17 754
391 1.233658060578342 3.6621548880153183 5.4564627540208948 167 143 115 0.24283124360344804 21 108 16 830 19 414 17 782
392 1.234195118013556 3.6657783900679743 5.4597374017001226 167 143 115 0.30907391126849376 21 109 16 831 19 415 15 809 12 500 17 783
393 1.3294139175697532 3.7157963513774535 5.3919353268035239 148 124 96 0.4009084367665961 21 110 16 841 19 417 15 815 12 284 17 687
394 -2.3408636169521295 -5.6393101058894679 14.512897199133839 83 163 234 0.96926575701522211 18 558 16 878 19 432 15 1093 12 636
395 -5.7373046106704937 -5.5823852417685886 14.410090412556604 35 37 98 1.3336940493851404 21 332 16 881 15 1096 12 991
396 -2.3014782389953412 -5.3053966794533238 14.637128715007211 91 168 236 0.39899056372050357 18 561 16 883 19 436
397 -1.9871040651595071 -5.2719785618559056 14.638873390069607 79 166 234 1.0300575498776381 23 500 16 884 15 1100
399 -2.0175003356222505 3.6926540746630105 5.1384439991157702 155 128 98 0.89734945487245921 21 507 16 973 15 976 12 876
400 1.1486566466471455 3.710274743270479 5.345031559737671 200 179 150 0.99400133575479221 21 272 16 997 19 595 15 1002 12 717 17 961
401 1.4297548197841219 3.4518554161993591 6.0044511648000904 184 163 136 0.4572557961967309 21 264 16 1158 19 495 15 1179 17 951
402 -0.91795190056586262 3.9790411236154037 4.6529052614639728 77 54 36 0.69449859887230203 21 296 16 1182 15 1177 12 703 17 952
403 -1.0523918248591153 3.4184111434721816 5.5306880939397907 187 158 126 0.52138014536821131 21 501 16 1268 15 1163 12 873 17 1059
404 1.1283537139276021 3.7564769264570628 5.306004315120652 156 132 104 0.72175792154323626 21 504 16 1280 19 598 15 1364 12 1111 17 1159
405 -6.194900720196963 -4.9259668955771652 14.310918830574684 93 145 218 0.88983511653885294 21 650 16 1303 15 1415 12 1371
406 1.178596803957475 3.7119975853011549 5.373997045484483 200 176 148 0.93935111654006165 21 502 16 1365 15 1512 12 1325 17 1158
407 -1.9921375258951755 4.0746737822754646 4.2470616958708005 145 121 97 1.1356170310891172 21 750 16 1366 12 1315
408 -5.9039983346449949 -5.5258911290161041 14.20630467464334 73 140 208 0.35066363622362384 21 717 16 1375 15 1631 12 1468
409 -5.9039983346449949 -5.5258911290161041 14.20630467464334 73 140 208 0.35066363622362384 21 718 16 1376 15 1632 12 1469
410 -6.3992670654107204 -5.3148747341706954 14.467478968138716 35 39 112 1.10694976622921 21 719 16 1377 15 1633 12 1471
411 -5.6659045413649318 -3.7796197606199087 14.620918538237213 40 41 46 1.1834117285530568 21 725 16 1384 15 1639 12 1474 17 1208
412 0.2259741253840622 4.0991734263071224 4.7634387063858039 67 45 33 1.1150183917502314 21 789 16 1426 15 1599 12 1446 17 1202
413 -0.94944117663159611 4.1916190011139705 4.1879785847953137 128 106 82 0.80914569178185092 23 939 16 1428 15 1511
414 -0.16668160151098937 3.5172765231870224 5.608436818953729 132 120 105 2.1262417698530309 10 869 16 1461 19 835
415 -2.416435540852611 -4.9880113920247497 14.680306256646293 20 31 62 1.0847508662747276 23 502 20 364 18 682 16 1048 21 434 20 461 23 627 19 621 12 992
416 -0.16836940252899457 -0.15548329727248889 7.3921705359190231 51 60 68 0.1488968715934984 18 112 19 107
417 1.8931806821529622 3.1192307728821191 6.4885230063914063 156 136 111 0.61098388760771238 16 420 19 135 17 448
418 1.8343307568905973 3.2438005061205155 6.2929719114396514 151 131 104 0.9555770396515969 16 95 19 138 17 180
419 -0.026814051321525589 3.3697733785034747 5.7360694466543718 178 154 126 0.57429070073298982 16 424 19 149 17 629
420 0.46497314730106593 3.6074474556931815 5.4447257818407557 178 157 128 0.30012638573519307 16 296 19 166 15 254 17 316
421 0.46499480380158958 3.6076749322341612 5.4450953885852345 178 157 128 0.38795182057506167 16 297 19 167 15 255
422 1.2532252082627484 3.7512206732642475 5.3236538326076221 159 138 111 0.50433973541978905 16 501 19 180 17 523
423 -1.6166091679587402 0.31276909845673917 6.7716654426691676 54 64 75 0.45599029455309681 18 129 19 199
424 -0.60099020287034155 3.1964068073292951 5.9691015779935759 174 153 126 0.16765345411711749 16 417 19 218 17 425
425 1.0215000264370353 3.3493530511605356 6.0704806300545702 115 92 61 0.64638170687427576 23 141 19 221 21 101
426 1.5063992184833253 3.4125433600648041 6.028427711397061 96 73 42 0.40066906239518352 16 265 19 234 15 270 12 49 17 476
427 -0.35045776001573731 3.4593379903857286 5.5620306683656153 196 172 144 0.17605574009476702 16 428 19 246 17 437
428 1.1888538746325046 3.5507041334433231 5.6430044791369607 172 151 124 0.33415196801377495 16 467 19 254 15 283 12 263 17 498
429 0.38833804285856338 3.5499201176398105 5.5436857597455242 183 160 132 0.38521024302508017 16 278 19 256 17 457
430 0.29901458176524992 3.6147495037052222 5.4068708962436007 179 155 129 0.288001362199305 16 295 19 265 17 310
431 1.4501137595908933 3.7166473943907445 5.3924039954469292 158 138 111 0.52545900201345341 16 498 19 271 15 319 12 90 17 527
432 1.3482732571686524 3.7481847230664354 5.3504031861877142 157 136 109 0.17037601240809175 16 504 19 275 15 317
433 -0.016096148925642428 3.2412290623836943 5.9702097219618553 165 141 113 0.9252472961761119 16 616 18 386 19 318 15 532 12 229 17 623
434 2.0686366416316435 3.45338560729583 5.9581821125226639 134 113 84 0.27550285821350617 16 460 19 325 17 681
435 1.6694550777228625 3.4946871309787917 5.9692850427719462 178 157 130 0.66605011914180612 16 812 19 327 17 869
436 1.0949855520889415 3.5399978999066986 5.6514796720299971 171 150 123 0.31441326870977304 16 653 19 339 15 560 12 255 17 661
437 1.0949855520889415 3.5399978999066986 5.6514796720299971 171 150 123 0.31441326870977304 16 654 19 340 15 561 12 256 17 662
438 0.26387306542903538 3.5400636803509733 5.5152250184306464 203 182 153 0.19494012633448476 16 642 19 342 15 544 17 642
439 0.17641372636542807 3.5796628851062873 5.410213651145737 205 181 153 0.55813520396211802 16 452 19 344 17 456
440 1.2771149298464848 3.6922261460525094 5.436821027032547 187 166 139 0.57694341011421879 16 672 19 348 15 590 12 507 17 786
441 1.0711822031532936 3.7046572093906125 5.3853604605681937 170 149 122 0.44146052553966408 16 669 19 350 15 582 17 780
442 0.72569130607119192 3.7076738962155789 5.3188052874442393 172 148 120 0.4677249776950268 16 667 19 351 17 502
443 1.6366753921118078 3.7407822722693012 5.3955487639391775 163 142 115 0.12000644786260757 16 847 19 353 17 793
445 -0.2239403994442408 -0.11104805199568664 7.3138273067846651 34 38 50 0.89439989564266664 16 376 21 142 19 378
446 1.906507549913675 3.4184275256166088 5.9989429960558533 169 148 121 0.6583094813207786 16 986 19 399 15 995 17 870
447 1.0303409961743846 3.6507041633377519 5.4802059008913124 198 177 150 0.79613224319034948 16 825 19 412 15 803 12 495 17 872
448 1.3461521837279777 3.6971102571977048 5.4279920139314592 184 163 136 0.41087411235792376 16 673 19 416 15 813 12 511 17 789
449 0.44129935293621286 3.9030461906733236 4.9566791323229982 173 149 121 0.44443722477676939 16 687 19 425 15 583 17 683
450 0.44123654774506388 3.905020719022946 4.9584888415469228 173 149 121 0.44413237471811645 16 688 19 426 15 584 12 513 17 684
451 -2.3350215452640386 -5.6274594578186727 14.479609155387545 65 149 221 1.1065349704596643 16 877 19 431 15 1092
452 -2.644110512572186 -5.0114702158178117 14.635045541424727 23 21 47 0.91365167139402148 16 730 19 438 15 944 12 638
453 -1.3552616699043574 -1.1077613272694988 11.830332448855007 46 54 65 0.67417697967022583 21 474 23 411 19 460
454 1.0484914588101466 3.7224898656660135 5.3505751944131452 197 176 149 0.43108238101699509 16 995 19 508 15 1188 12 897 17 960
456 -1.5459643529646319 -5.5849825774892974 14.565533356080822 56 143 215 0.74800612564599467 10 561 16 880 19 526 12 990
457 -2.6122603369869406 -1.6142927862893455 12.488624405721813 48 56 69 0.039094573901129762 21 460 19 549
458 0.26293094447732795 3.5686251370929183 5.4644131928266244 186 160 133 0.34581591754941421 16 1163 19 593 17 1061
459 1.5144893600937714 3.7643238366250178 5.3628332907412757 188 167 140 0.4430427330042534 16 1185 19 596 15 1193 17 1071
460 -2.0037894452860034 -4.1550042575237001 14.864080355640118 28 28 36 0.059131315030378176 21 445 19 630
461 0.49361128438580543 -1.7456435592928903 13.328203488807102 34 39 45 0.84551766922503069 18 794 21 578 19 647 20 479
462 0.35865187069722387 -1.4969731007780609 12.76843455767073 62 72 82 0.32740929402927393 18 693 20 482 19 651
463 -1.9128720950112297 -5.7782019814984755 14.466870384793006 42 100 147 1.1482223233987656 21 557 23 717 20 457 19 525 10 558 16 1036 12 1183
464 -0.69333824091859586 0.10178705005097421 6.9980202706482002 32 40 51 0.35409525274226056 21 92 19 287
465 -1.2669456481326167 0.22355398318700415 6.6121685749230377 15 21 27 0.59824700571538036 21 97 19 383
466 -1.1339779868561277 0.064335266716861531 6.9065704187739767 6 7 9 1.577267336692044 16 1350 21 691 19 738 15 1495 17 1135
467 -0.68461223401360993 0.021970625274537525 7.1152348092083058 2 6 8 0.32795364039019642 21 602 19 739
468 -0.58304872399101737 4.2259032947901529 4.2083599904064188 105 86 71 0.8461138867643474 18 234 21 55 15 111 17 529 16 528
469 0.19842467942418329 -0.6326050477895151 11.276347327808525 59 78 92 0.54318615536018233 16 372 15 203 12 182 17 704
470 0.89918431276946376 3.4633768589360714 5.7570963702530626 185 163 139 0.11451982518991549 16 446 15 251 17 306
471 1.7661051612058798 3.3093160511650388 6.2922495000926171 87 70 47 0.57223989053483937 16 427 15 263 12 45 17 467
472 1.1096300352302788 3.5156915580421946 5.7216200403208131 181 159 135 0.36493186288476331 16 453 15 271 12 53 17 488
473 0.53011452082705357 3.6915526209965686 5.32266315029631 173 149 123 0.12129408554069855 16 481 15 273 12 264
474 0.52850255358222775 3.6925566466928936 5.324525606326886 173 149 123 0.20195505072688405 16 482 15 274 12 265 17 495
475 1.6474467138541171 3.4687184989227826 6.0094944513518724 114 94 69 0.3839521430048734 16 276 15 284 12 258 17 329
476 0.83037888772392454 3.6760942519626365 5.4072803900852122 172 151 124 0.1929489765110802 16 484 15 286 17 671
477 1.3030585777131543 3.5370395885803414 5.6896911517520721 185 164 137 0.19301267364041441 16 466 15 287 17 500
478 0.82562168963820415 3.7018042994182365 5.3575020964882007 171 147 121 0.37758155131269583 19 269 15 290 17 504 16 313
479 0.50760033761738355 3.9247153395335554 4.9759726207438222 180 156 128 0.77064530950336729 16 512 15 306 17 685
480 1.1972016046750618 3.7521106282094645 5.3373303049845804 170 149 122 0.55089552309474177 16 495 15 311 17 686
481 1.2502216771530286 3.7702160542220433 5.3351691198592812 156 134 109 0.51411759936054269 16 500 15 315 12 515 17 522
482 0.49818726641989958 4.0105607718422789 4.8034040012127397 183 159 133 0.41827336111575636 16 518 15 316 17 531
483 1.4467400239488422 3.7233173879283865 5.3996626085551043 171 149 125 0.30231109524099686 16 497 15 318 12 89 17 526
485 1.4993149194721345 3.7234288960141257 5.3883454807451416 172 151 124 0.15890148713421756 16 503 15 327 12 97
486 1.0289808971487133 3.9840972942286355 4.909313664010206 172 148 122 0.32017627084202066 16 523 15 354 17 698
487 -0.12438266623427169 3.5329437729223385 5.4604116935873463 180 158 126 0.41300629955555884 19 343 15 539 12 39 17 759
488 0.27161784943035311 3.5634448409877502 5.486687815751476 179 155 127 0.31846733613787515 16 811 15 545 17 765
489 1.1748461432669055 3.4731366906341719 5.7936681642539298 182 161 134 0.35583522074700102 16 644 15 554 12 243 17 768
490 -0.2232194962626925 3.9287979838806022 4.8832692768322321 159 135 109 0.50061615341968946 16 677 15 556 17 499
491 -0.18308647111636078 4.0106916561279951 4.86062259261056 134 110 84 0.55770376624970708 16 686 15 564 12 712 17 673
492 0.12594355649190475 3.9693529670125156 4.825342250669264 155 131 105 0.22391783366807769 16 689 15 577 12 283
493 1.2102481077491594 3.6877624203285233 5.437042152008063 203 182 155 0.33249260401767405 16 668 15 587 17 784
494 1.3162352760985137 3.6778795236087869 5.4520560153674706 169 147 123 0.44796989122066072 16 670 15 588 12 506 17 787
495 0.84655766928978993 3.8530078609618825 5.1010176171007746 172 148 122 0.37797774710267873 16 510 19 357 15 594 12 288
496 -0.13931370283493036 -0.20553635033905954 7.2522777210006355 13 18 21 1.0656646507360248 16 764 15 727 17 712
497 -0.5821539678340284 3.4795148111199836 5.4789568082946527 191 165 138 0.52252112070135004 16 799 15 767 17 856
498 -0.5821539678340284 3.4795148111199836 5.4789568082946527 191 165 138 0.52252112070135004 16 800 15 768 17 857
499 -1.0951455343645722 3.9835298705491766 4.6261704883935897 55 33 15 0.22101914666363387 16 843 15 782 17 766
500 1.1246864854422616 3.52321102346336 5.6778139832700605 205 183 159 0.23841296524029776 16 814 15 790 17 867
501 1.1754067504743313 3.523672336338127 5.7295108986346399 179 157 133 0.63776864989366333 16 813 15 792 17 866
502 -0.24717834182439813 3.9841967443030795 4.8709071107635449 146 121 93 0.40779674712367014 16 1002 15 793 17 777
503 1.5858775581787063 3.4349693756390014 6.0168148633414775 124 104 79 0.33968252200973975 16 981 15 794 17 864
504 1.1845878474811755 3.5239028776337968 5.6675417019909879 206 184 160 0.2927590079985094 16 815 15 796 17 774
505 -0.26592433797821835 4.0581568240557564 4.7017476674038239 106 83 61 0.51699951471562056 16 1010 15 801 12 720 17 959
506 1.4401137743217394 3.732278117439622 5.3614471325882258 196 175 148 0.29423737060899896 16 678 15 820 17 791
507 0.94534203856051369 4.0844649790160839 4.7090027165646182 194 172 148 0.50606434557604019 16 859 15 855 12 737
508 1.3671193282791836 4.0523450691895171 4.8505725689369985 157 135 111 1.316349099746676 16 860 21 121 15 875
509 -0.49916330277603016 4.0572779170762256 4.573925308714883 99 76 58 0.94976862198900602 16 1188 15 989 12 715 17 874
510 0.10265946655153541 3.9452581771521902 4.8581489916532572 199 174 148 0.57552724136444011 16 1005 15 993 12 716 17 877
511 0.81896864018398052 3.8024231668032531 5.2123148876362837 176 155 128 0.4957316265686218 16 845 15 999 12 509 17 881
512 0.36933710896624122 4.1338581900490015 4.7570792862914795 63 41 26 0.22874380273190284 16 1015 15 1004 12 914 17 886
513 -9.8377508829495817 -4.6947637085955956 14.13790280983878 72 88 114 0.61555496846288194 16 1054 15 1107 12 1000
514 -7.9709127186754447 -4.7836413916295681 14.44405396820485 29 37 65 0.090115929460414426 16 891 15 1108
515 -9.5659847415331711 -4.7006960050171234 14.278936071349229 35 58 100 0.76411953910411967 16 1055 15 1109 12 824
516 -9.1730316934215654 -4.6560560350194624 14.242748701235637 40 68 128 0.68542333255622401 16 1056 15 1110 12 823
517 -19.447816946661838 -4.9721503793003823 38.51076704610103 39 50 64 0.26419373021525333 16 1083 15 1120
519 -0.42033178649003811 0.14404377162290644 6.9559934198775624 7 6 12 0.9344562299182636 16 1260 15 1139 17 1189
520 -2.3630760196490859 3.7294553328574152 4.9456724070494058 114 89 65 0.44586701831226877 16 1271 15 1161 12 874
521 -1.3122507002084869 3.8932759781858794 5.0298573324296418 54 38 25 1.176301165814345 16 990 15 1168 12 885 17 859
522 -1.353350201856037 3.9119098476450995 4.8659934523722397 98 74 50 0.34003185319356083 16 1170 15 1170 12 887
523 -1.2307638832257868 3.916159541507271 4.7142367240949072 135 113 90 0.36672388888172242 16 1174 15 1175 12 890
524 -0.037454162300271376 4.1021074538928346 4.6623168645466393 124 102 78 0.50045624235621211 16 1192 15 1189 12 1115 17 962
525 -6.88791446718652 -2.2598056733654626 12.792024034130346 54 64 76 0.43335716067628099 16 1077 15 1274 12 1195
526 -7.0517058828728132 -1.9896446741855696 12.441405292522155 81 91 103 0.54059445714431775 16 1218 15 1281 12 1011 17 992
527 -6.6974359353623658 -2.0912939154559744 12.742779166825228 26 33 41 1.1992883692919942 16 1217 15 1283 12 1008 17 991
528 -2.5765399313854376 -1.6134710926928648 12.42842824419504 51 64 80 0.72386255455954007 16 1091 15 1292 12 1020 17 901
529 -0.6219809564481833 0.11916050256132342 7.0461808742794112 172 195 213 0.81305392600232163 16 1353 15 1314 17 1137
530 1.2978635349758316 3.4391567095895215 6.0239494373689597 195 175 150 0.27623086573512118 16 1156 15 1350 12 1104
531 0.64617819172550151 3.6212975226860458 5.4811649740482675 179 155 129 0.70829943715486365 16 1168 15 1351 17 954
532 0.5986888426179483 3.6749281352354561 5.3663089862979856 177 153 127 0.11084612616891572 16 1276 15 1355 17 1064
533 -0.14957715679185263 4.0845309463998323 4.6714732678119884 115 90 66 0.30892797753249995 16 1284 15 1361 12 1113 17 1067
534 -0.58778059785111625 4.4537285532860622 3.8570468059553202 100 77 59 1.4096026269630018 21 713 15 1372 12 1334
535 -9.4751028914582225 -4.849045225851671 13.921557566762297 30 41 69 0.18330048661336149 16 1304 15 1412 12 1191
536 -5.9592656807570537 -0.69617616033099794 10.295070151913839 59 69 79 0.067831856034832425 16 1336 15 1468 17 1176
537 -2.6849880768673566 -1.3208946520929932 12.187061125734633 42 55 70 0.63497983967558103 16 1326 15 1473 12 1230 17 1172
538 -2.0579047348759332 -1.4252222874037446 12.352069352680385 23 31 41 0.33231073943898476 16 1323 15 1475 17 1100
539 -1.6063569085905951 -1.4943304031412452 12.508361046664465 25 35 44 0.82996998426045343 16 1321 15 1477 17 1097
540 -1.2524212716590721 -1.0676425944029435 11.991534969789535 17 27 36 1.868132364754336 16 1106 15 1489 12 1249
541 -9.3864064404221654 -5.558930965537658 13.861643855845189 53 72 112 0.51135503017576089 16 1296 15 1545 12 1368
542 -6.8714873914960863 -5.2120324720273228 14.339853235749947 32 40 87 0.44960243656476884 16 1301 15 1548 12 1369
543 -5.168942017123495 -1.2899277377275253 11.428739505136774 22 29 35 1.161159149790344 16 1392 15 1557 17 1217
544 -1.1922942123910927 0.20250583534236816 6.9039533486739035 163 185 199 0.94535085662958063 16 1408 15 1575 17 1188
545 -0.48073801577181885 4.3199324885847012 4.0575108231613308 66 47 33 0.59323006009681389 21 756 15 1602 12 1450
546 0.44364200858285258 4.1340707921940352 4.7481267492550456 78 53 33 0.38938128224421248 16 1474 15 1603 12 1529
547 0.064516167838385208 4.3275994035017833 4.1681911522572328 101 78 60 0.13646872788441058 21 708 15 1606 12 1452
548 -0.42879407140174985 -0.74084072317407546 11.178339503923921 68 85 103 1.230146323089172 16 1402 15 1661 17 1233
549 -1.0893324285207115 3.8940671776082048 4.9457484222533861 58 40 38 0.39731903345090164 16 1464 15 1671
550 -1.1734142595988653 4.2457075881003163 4.0765942624187854 121 99 76 0.49333182495792416 21 796 15 1680 12 1524
551 -0.74607129798864125 4.2063155189459964 4.1770929106179873 56 42 31 1.0908774739444267 16 1477 15 1683 12 1445
552 -0.88963820116366665 0.099327881074043889 6.9155283427410588 3 3 4 1.1463327922749142 16 1492 15 1721
553 -1.524508091099102 3.8231231524865379 4.6662671848732478 135 113 90 1.5281499992959118 16 1496 15 1729 12 1613
554 0.18776733732584228 4.0555132172387705 4.4510388705787243 132 110 87 1.337679431420705 16 1502 15 1735 17 1269
555 1.0952547082818032 3.3526965631678713 6.0868120303416449 181 157 129 0.49772418849608741 15 63 19 142 12 40
556 1.713056857177532 3.3051480312948303 6.2638974821410791 127 108 91 0.46818378699082547 15 260 12 44 17 466
557 -1.0788128529094863 4.0137296920977841 4.6227125000948002 124 99 79 0.13270500032134094 15 247 12 58 17 475
558 2.9090501651493033 3.7529733748456482 5.6151449140029062 205 161 142 0.016497858270577294 15 418 12 118
559 -11.551606074936114 -2.7923240999113212 13.15135769453717 141 151 160 1.2595602589754742 15 726 12 179 17 699
560 1.6908146867728631 3.3953746992552509 6.0237347441538986 155 137 113 0.64989478096737285 16 444 12 248 17 493
561 -0.011288863142509209 3.9880045566568283 4.842000531789453 171 145 118 0.1645304025176699 15 294 12 279 17 507
563 1.2366183429879798 3.9130541492541293 5.0467935667285468 186 159 130 0.17755169897202536 15 612 12 311 17 796
564 -8.855875054268715 -4.5864484789415831 14.11089413335821 35 45 70 0.10538162016547337 15 725 12 406
565 -0.28532325879237114 3.9311801163017837 4.8974121212689417 168 143 113 0.83835328168109335 15 786 12 494 17 665
566 2.6249880925669227 3.5743782710311693 5.9316106107679625 150 131 108 0.3512620442630679 15 846 12 525
567 0.7073766736374526 4.141224538202013 4.7348940231287884 145 120 90 1.026629657837635 15 619 21 202 12 542
568 2.1173208429729953 3.8314597420855447 5.3330882576944605 184 162 138 0.39802577605065786 15 658 12 545
569 -0.015910186272210192 4.3363732011275715 4.1107221544672132 103 81 59 0.25884637780267711 15 626 21 318 12 557
570 -1.9870567575001226 -0.72705320395854556 11.09009461380745 76 92 108 0.62363179660279666 15 1129 12 648 17 908 16 926
573 0.030598161907266663 4.2720060468799597 4.2512522851402679 47 27 16 0.90061048278537248 15 834 21 314 12 734
574 2.7616893585116049 3.7574744857867404 5.5954355259680622 176 154 131 0.035892004895265853 15 887 12 746
575 -11.434644894693879 -2.6246073391891849 13.004569975143594 144 154 163 0.63570058081948944 15 1116 12 826 17 975
576 -3.8145536732234149 -1.9463439391308512 12.957368641929925 49 62 78 0.039062708785203945 15 1121 12 830
577 0.55109419081783251 0.48184158862165999 9.807223355485668 55 71 87 0.92730448082780637 15 1146 12 857 17 838
