# 3D point list with one line of data per point:
#   POINT3D_ID, X, Y, Z, R, G, B, ERROR, TRACK[] as (IMAGE_ID, POINT2D_IDX)
# Number of points: 336, mean track length: 7.0978120978120982
1183 -15.567649835345426 12.116943998305787 47.095656756916 220 224 225 0.84558232924600263 3 581 7 758 9 801 12 748 17 862 18 634 4 741 20 783 23 805 19 604 5 670 22 726 13 707 11 730 14 725 1 693 8 713 2 690 15 770
1187 5.9558677152321478 14.703737109213966 40.551136085066275 139 143 146 0.74338627309012661 7 764 12 756 17 872 20 789 4 750 19 610 5 680 22 733 13 711 11 742 14 736 1 706 8 723 2 702
1188 -11.66641191250919 12.197402593385148 31.326009941795057 28 26 27 0.70718617384186633 3 586 7 766 9 810 12 757 17 873 18 643 4 751 23 815 19 611 5 681 22 734 13 712 11 744 1 707 8 724 15 783
1258 9.1771292245835792 16.335699154882196 39.566892569232479 199 176 142 1.0634151808681021 7 865 9 915 12 880 17 995 18 756 20 869 4 846 23 914 19 720 22 826 13 800 15 868
1264 -3.937912035080819 12.781758099620044 9.6167001373281309 56 58 57 0.71540761930482799 17 269 4 184 2 164 20 300
1265 -3.6558070500120881 13.368201225361908 9.0290269514216153 174 142 95 0.48523793200078053 17 285 4 188 19 238 5 250 14 242 1 225 8 246 15 295
1273 -6.4194906338087252 12.905815524404808 9.5124772331761527 20 21 23 0.60148273084521708 9 509 18 359 4 460 20 587 23 509 19 387 5 436 22 410 22 512 13 388 14 428 11 455 1 497 8 526 2 473 15 583 21 529 6 388
1275 4.155111748036469 13.916351305977122 10.261544551242821 130 96 50 0.72770318275052637 7 629 9 677 12 631 17 811 18 579 4 598 23 745
1295 -6.4457956880203566 13.313427954424727 14.443453761318844 94 98 97 0.33478136775959494 7 22 23 37 9 193 12 16 13 26
1296 -9.4626116739689312 13.23007867313007 13.840436900342175 105 109 110 0.2347106003659786 20 44 23 41 22 32 1 33 11 25 14 29 2 35
1298 -4.6951933936153161 13.074360775386133 11.130482008018886 78 82 81 0.10168359730729941 9 81 23 77 18 50
1299 4.3964603743809505 13.324858323642774 11.354293565412885 99 97 102 0.3541389074445796 4 69 23 82 5 49
1301 -0.61999988094775771 13.102726805227132 10.656756291367138 43 45 44 0.25361435400588539 4 85 18 67 23 94
1302 -0.23034554278000768 13.146157275618396 10.63746993006793 67 67 67 0.32968678388898226 9 123 23 98 4 172 19 61 5 69 15 132
1303 -1.235444974951533 12.932933019020986 10.30238534505661 42 42 42 0.69219209561569595 20 203 23 101 5 71 19 65 13 133 11 90 14 155 2 161 1 214
1304 -6.2417211832701849 12.930647591102083 9.8614765450180393 63 67 69 0.2105793570519138 20 111 23 108 22 112
1305 -4.2370392801091477 12.982285751439809 9.9992295673753446 52 53 55 0.26168321384999177 4 102 23 112 13 137 1 86 8 117 15 229
1306 -5.232264034673193 12.96580950932203 9.498874349484522 88 90 89 0.35100255222783011 9 144 23 122 22 122 13 97
1307 -1.2934566463309511 13.619252336259771 9.3410120039858189 139 102 57 0.41052426756221211 17 168 23 129 15 165
1308 2.2323339732794825 13.216759738932709 11.230175503028189 34 35 37 0.23557363476553567 20 81 23 176 9 87 22 82 11 64 1 64 8 81
1309 1.9636033649709996 13.170889881985474 10.807380533015213 131 132 134 0.30053856460520628 4 242 20 283 23 181 9 346 22 159 5 161 13 182 11 162 14 153 1 210 8 171 2 203 15 219
1310 -1.1927529536427564 13.416449675783298 9.4751387612893616 142 105 60 1.0475811318451751 3 245 23 200 13 144 10 196
1311 -5.3837525538765041 13.270716267826606 8.4650343657349012 172 139 92 1.0608850319745244 12 257 17 291 23 205 22 178 18 150 1 169 8 247 15 238
1312 -1.5561438642149255 13.438662378810386 8.1218762882973738 135 101 66 0.8977532453848357 18 160 23 211 20 233 7 231 19 197 19 198 13 157 11 212 14 183 1 176 9 251 2 182 10 136
1313 3.8594324810974596 13.327934654890109 11.575237765793746 10 12 11 0.44897693375651271 18 127 23 241 7 258 12 194 20 278 17 334 19 257 5 289 23 320 11 287 1 142 8 162 2 197
1314 -3.5652517585319887 13.12180136287863 10.220670829207448 9 10 12 0.46191097273086879 4 252 23 255 2 210
1315 -2.8663525712169458 13.000016010414956 9.8796666708166363 68 70 69 0.21982571585710936 4 185 23 260 9 228 19 270 5 305
1316 2.0431367407824026 13.71751291352996 10.117573286635178 120 85 42 0.36098728097744215 9 296 12 245 17 364 20 306 23 267 7 289 19 237 5 247 11 260 8 243
1317 1.9769407893452613 13.304396397292177 9.503489698669803 154 121 80 0.39472711328100224 12 248 17 367 23 268 13 199
1318 0.32464828993936296 13.550614622576118 9.6152834239141232 113 76 34 0.47480688856354153 4 187 7 207 17 282 18 191 23 269 19 170 11 261 14 171 15 294
1319 -5.6986599683407579 13.237702418947483 8.3465625108423076 157 124 75 0.47583330370968135 7 291 12 323 17 380 18 194 23 271 9 242 19 179 5 254 22 238 11 195 14 244 1 227 8 249 2 170 6 236 10 198
1321 1.852568184021931 13.572117614144652 8.9826100006018628 86 52 27 0.82029501333959653 4 273 9 304 20 382 23 274 7 292 12 328 17 382 19 245 5 322 13 252 11 309 14 299 1 228 8 308 15 356 6 325 21 411
1322 0.86732121627095393 13.663946797975074 8.8096512437995571 110 76 50 1.1150887002146375 12 333 20 387 23 277 3 201 18 155 19 248 4 204 5 261 13 150 14 248 8 253 15 300
1323 -2.1024815801636207 13.079399291341721 10.402999573394752 11 9 10 0.25872639941759329 20 288 23 330 5 296 22 273 14 226 8 231 1 212 15 278 11 166
1324 -5.6534523159644472 13.076024906133682 9.9610525111593127 64 65 67 0.66324575419566789 7 335 23 338 22 278
1325 -2.7178245137810273 12.94000389904094 9.8624246737468848 64 64 66 0.49808679531511491 4 378 23 341 19 324 11 373
1326 2.8620737687737394 13.492589972855082 9.8244423814873159 148 115 71 0.58261217215461103 17 441 18 300 20 443 23 345 19 330 13 315 11 381 1 332 8 375 2 317
1327 0.3840550178225956 13.464853351850051 9.455407877378553 193 160 119 0.075108455918523526 7 342 23 346 19 331
1328 -2.3089491060981824 13.336579629599331 8.048230908756814 167 135 96 0.58760136388609829 12 391 17 455 20 390 23 355 9 371 19 294 5 329 22 342 13 253 11 315 14 251 1 288 8 377 2 322 15 360 6 289
1330 3.9852661778520084 13.162415179425206 11.386683150158969 17 19 18 0.54346626782331731 3 330 18 217 23 406 7 321 17 420 22 389
1331 2.0020283376438059 13.217268118063551 10.704187235243184 13 14 14 0.67197378513170047 7 331 9 409 12 415 18 220 20 434 23 410 17 350 3 332 1 324 8 363 15 414
1332 -3.7899412601288343 12.978742828469118 10.017434486832768 16 17 19 0.37740299968987329 20 437 23 411 19 320 5 371 22 331 13 303 11 367 14 351 1 326 8 292 2 307 15 416
1333 -4.6282495135151835 12.978523889124011 9.9057613887018601 16 17 19 0.31584798489704186 20 438 23 413 19 321 5 373 22 332 13 382 11 368 14 421 1 401 8 367 2 376 15 484
1334 -3.3558177944880923 13.038975814090474 9.734933371788415 8 8 8 0.14307772229544158 4 381 23 419 19 326
1335 -4.0556265486792382 13.023197338590675 9.608869356970823 7 7 5 0.37638688295449291 12 429 17 433 18 297 23 422 19 328 5 378 13 310 14 358
1337 -3.3311112784046277 13.34625623203606 8.0188698191825747 164 131 90 0.76425480255060751 17 523 20 447 23 430 19 337 5 390 22 341 13 320 2 321
1338 -3.5621860281450584 13.363618995720072 8.0134630120366683 160 127 86 0.83580533771543053 3 424 7 410 12 442 17 522 20 524 23 431 9 530 19 405 5 453 22 429 11 472 14 449 1 420 8 463 2 391 15 508
1343 -4.0700681416928388 12.958890295626286 9.9530999567673923 19 21 21 0.30421178437983337 20 579 23 501 19 382 5 428 22 403 13 381 11 446 14 419 1 400 8 444 2 374 15 483
1344 -1.5067224959217647 12.839194957381181 9.9815527152222874 75 73 74 0.52884781490522104 9 495 23 503 17 586
1346 -6.9361476861704121 12.81852183098921 9.3546663394580296 27 27 27 0.73578405084891052 20 510 23 512 19 388 5 438 22 411 13 482 11 456 14 430 8 451
1347 2.3903124130041102 13.732524153741354 10.237244024538505 113 77 35 0.36198339569258575 7 488 9 520 23 516 17 606 5 443 11 379 14 439
1348 -1.5778713132484283 13.397361548071505 9.1556705481859186 134 91 47 0.3135026426957071 3 482 7 492 18 371 23 517 12 578 5 445
1349 -0.26584819353344757 13.483167805750648 9.1383054329848274 150 116 71 1.136232058089655 4 468 7 495 9 525 17 612 18 373 23 518 13 399 14 537 15 594
1350 -1.9654408599450901 13.303422144805394 8.6565058823840708 169 135 92 0.33351404509753091 9 429 23 519 19 400 5 449 22 426 13 400 11 390 14 443 15 505
1351 -3.9418969480502168 13.333868941619846 8.4613716525112306 204 169 129 0.3677505709593456 7 408 9 430 12 441 17 518 18 376 20 521 23 520 19 402 5 387 13 401 11 469 14 445 1 418 8 460
1352 -5.3032931664399454 13.282883213012102 8.1451039902661027 210 179 133 0.70107053096851057 17 520 20 523 23 521 22 427 8 461
1354 4.681980874446146 13.392427992665738 11.73030684396846 22 24 24 0.95365309330845671 17 565 23 575 7 450 9 479 12 556
1357 -0.53518713869572465 13.374795433897583 10.629581175407584 63 65 64 0.61250269653368905 7 555 23 584 17 658 5 493
1358 -5.9103542461809653 12.9583549087431 9.6461620151961345 20 22 21 0.45810910695733803 12 501 20 583 23 587 7 471 9 505 19 444 5 500 22 507 13 478 11 526 14 521 1 494 2 470 15 579
1359 -5.8936908208576959 12.927233977951611 9.6178184361024854 20 22 21 0.46228456030312326 7 472 12 502 17 663 20 584 23 588 9 506 17 594 18 295 19 445 5 501 22 508 13 479 1 495 2 471
1360 -6.6877320323720442 12.915260425745934 9.4687429572660555 25 29 28 0.31237873641548292 20 589 23 591 19 446 5 504 22 511 13 481 14 523 1 498 11 453 8 527 2 474 15 582
1361 4.038931080289565 13.775835928246963 10.660379367031082 125 87 41 1.1432239308250158 18 439 20 588 23 592 19 450 5 506 11 529 21 591
1362 3.7777340253618599 13.775649427393445 10.591673729252307 127 85 42 0.51115848875197667 3 472 23 593 22 515 11 530 8 533
1363 -5.6144093364114989 13.103749579072952 8.3933290653737629 211 180 136 0.62911350536515365 18 448 20 596 23 596 19 454 22 521 14 538 1 583 15 656
1371 -12.74853168623094 14.445068624720696 29.921957064477454 26 24 25 0.84167821055628622 7 619 9 659 17 712 18 484 20 648 23 657 19 483 5 547 22 578 13 543 11 577 1 464 8 588 2 539 15 560
1372 -12.74853168623094 14.445068624720696 29.921957064477454 26 24 25 0.84167821055628622 7 620 9 660 17 713 18 485 20 649 23 658 19 484 5 548 22 579 13 544 11 578 1 465 8 589 2 540 15 561
1373 0.62826006748999985 9.3617652228935029 11.341794979995511 76 77 79 1.3008566627912193 4 590 23 665
1374 2.7182984981384535 13.218694050401991 11.283488773479839 13 15 14 0.6838711356551852 3 528 20 657 23 667 5 556 4 515 9 592 18 422 22 589 13 565 14 505
1375 0.4322265184109097 13.556825493923862 9.7210239718158711 120 83 40 0.50841675913242679 20 668 23 671 5 564 22 594 14 601 8 602 2 563
1376 -0.70399307263180133 13.508704792064288 9.4677885462170757 134 96 50 0.46178222860937085 3 534 20 670 23 673 19 499 5 566 22 596 13 571 11 592 14 534 1 578 8 604 2 565 15 650 10 577 21 644 24 407
1377 -6.8849195557798639 13.132698090523531 8.1338364003555146 213 182 138 0.50062544348737814 20 677 23 678 19 507 22 604 13 577
1383 -10.150828537653515 14.75950321770776 27.504643849720228 64 68 69 1.8465038578552633 4 680 7 702 17 810 19 620 17 879 11 746 13 546 8 669 1 645 9 815 15 721 6 639
1392 -12.6904018423871 13.103601679994069 38.459335149396225 171 177 177 0.80717691914773504 3 583 4 673 7 763 9 806 12 753 17 871 18 640 23 813 19 607 5 677 22 731 11 740 15 779
1393 0.84628171095648008 8.3175152141499407 9.9486798913610226 17 17 17 0.029947007231646408 4 509 23 823
1394 3.7245673576011931 13.873446741208303 9.7616001124245422 161 128 87 0.76263856670442109 12 766 23 824 4 756 17 886
1409 8.801561837236866 15.719300958312065 37.933776963209517 198 177 147 1.2234271571534108 3 674 20 868 23 913 19 719 5 773 22 825 13 799 11 839 14 817 1 789 8 789 2 767 15 867
1412 9.3410059840103958 14.232720533733787 35.492447483854392 9 9 11 2.0077210118656654 3 672 20 790 19 613 5 682 14 738
1413 4.2581537451021525 13.147185199437649 11.34840214996092 70 72 71 0.53316502637313956 3 132 20 79 19 37 5 43
1414 -0.4695627984666858 13.069508524255811 10.701375925595553 35 36 38 0.39696144739169298 7 84 9 112 12 85 20 90 19 46 14 60 15 123
1415 -0.066875293601019389 13.069938308239877 10.696709954537667 37 38 40 0.28976532133942845 7 87 18 64 19 52 12 92 5 60
1416 0.66051588920363757 13.071162177660579 10.492492210970671 118 119 121 0.16426736075329446 23 188 19 67 22 162 13 134
1417 -0.73855334590402166 13.121997730893433 10.44037775525468 88 89 91 0.4466747258137726 4 95 19 68 7 102 9 128 18 76 5 75
1419 -1.8437960582403354 13.074965575760841 10.240836518232193 41 43 41 0.2346547582268125 20 108 19 77 5 86 11 96 8 116 2 107 15 148
1420 -4.3557606756588347 12.932762619290051 9.9192144846232875 14 18 19 0.44214034770214822 18 83 19 79 12 128 22 116
1422 0.30847206476619449 13.439706176405123 9.5784577782097564 140 103 59 0.48546889286172717 4 115 12 147 17 165 19 112
1423 -1.609226266482932 13.489374446850846 9.1172341197186384 185 151 105 0.31053947326624964 12 255 19 116 11 189 14 174
1424 -1.1328959161020014 21.640569310022048 23.877697113713928 4 4 2 2.4318057594740807 7 30 19 138
1426 1.1320857287525796 13.195782701382271 11.000275713098235 47 48 50 0.45159436598344066 3 183 19 143 22 156 20 193 13 128 4 240 14 57 8 93
1427 -1.031739236939645 13.024525838930362 10.573461054721159 41 41 41 0.3039349798821443 23 180 19 145 11 72
1428 -3.2850935726467232 12.719127559548303 9.7485723343000057 45 47 46 0.6004952554736005 20 209 23 195 19 156
1430 0.074330991605055755 13.452601488852459 9.8003039100801352 178 145 99 0.32341042594457253 3 193 12 244 19 168
1431 -2.8092351318601692 13.39510126073097 9.0059608583389785 174 138 88 0.27346806478710606 9 237 12 153 19 175 5 113 11 188
1432 3.2289510868386011 13.794091052234029 9.3948935190663576 103 71 40 0.39330824152086286 9 150 17 292 19 178
1434 -0.24035895786741363 13.486213172373096 8.436206937962103 116 85 44 0.73398801206582753 7 229 19 188 3 204 12 265 11 209 2 174 16 136
1435 -0.92283599460132038 13.566247148783196 8.3989625495409204 110 80 45 0.37276591635111128 4 122 18 97 19 192 9 250 5 134
1436 -1.0615538247393248 13.305771826797349 8.1715306134857375 106 76 43 0.91856886347287114 7 142 12 267 20 229 19 193 17 301
1437 -1.395111993525294 13.566305608221837 8.3260191712184159 106 73 41 0.74837748171650809 4 208 19 196 3 206
1438 3.6845129444160709 13.426398604088757 11.312580183375667 52 54 53 0.38605532214839772 23 178 19 217 5 226 13 179 11 231
1440 -5.0411110163947201 12.890958930625377 9.4394557260200092 57 61 60 0.54268641311041399 18 143 19 230 22 232
1441 -5.3620958281781217 13.268529680988086 8.3853184924184099 192 159 106 0.83565461058290103 4 272 19 240 22 239 2 224 15 296 15 355 10 199 6 285 24 194
1442 -0.58273370568308003 13.501117891099454 8.8155237325966347 128 96 49 1.0273850956964465 7 221 19 243 5 256 22 293 8 309
1443 -0.58093722590920915 13.434727318575529 8.7633639413031226 128 96 49 1.0035135585781303 7 222 17 451 19 244 5 257 22 294 8 310
1445 0.6938736798154288 13.037352852443906 10.690251899802895 16 17 19 0.41095980272178023 23 245 19 263 5 294 12 363 17 493 9 404 22 268
1446 -0.42396885488057806 13.072910783196374 10.632146861591771 10 11 13 0.32556661022947042 7 267 12 292 20 284 19 265 5 229 22 270 14 219
1447 0.23609360383171718 13.061641098159113 10.56205193933878 33 34 36 0.64073935483810796 20 359 19 266 12 295
1450 -5.9382446908679665 13.108630257600758 9.5167303829248855 120 124 123 0.47189143288323271 20 215 23 262 19 272 5 309 22 235 13 194
1451 -5.0069260429859508 13.294625549376352 8.9373995271531399 195 161 115 0.18933258486968563 9 298 19 277 5 249 5 314 11 262
1452 0.98375691555476452 13.58073829516511 8.894378576340138 142 110 68 0.4469812756835897 9 368 12 386 17 453 18 242 20 386 19 290 5 325 8 312
1453 -1.3989687133833799 13.383064780106226 8.2610107178773262 153 120 80 0.51278864091452325 3 304 12 390 17 454 20 388 19 293 5 328 11 314 14 303 15 358 10 280 21 414
1454 -3.0582288236769082 13.563995279927539 7.9907815269078073 113 77 47 0.34885879589940028 7 300 17 456 19 295 12 337
1455 -4.8431817211088672 13.541516309713716 7.6224570547926751 105 75 37 1.2053310501353462 7 235 18 246 19 296 5 266 13 210 11 270 1 233
1456 -0.33951027914617321 13.267039070391929 10.742639403883079 25 26 28 0.97226785483691081 12 487 19 316 5 370 22 394 13 371 11 362 11 439 1 321 15 477
1457 -0.16529899588341293 13.360723431247555 8.7678239098657809 141 109 62 0.13671096610635577 7 350 17 517 19 334
1459 -3.167120316279092 13.092009420019627 9.7895296218206109 7 7 7 0.41131402357064745 18 362 19 390 3 416 9 513 17 600 5 440 22 414 13 392
1460 -4.9659941977769684 12.997130291370881 9.4206260605375842 8 10 9 0.34868494624965235 18 366 19 392 13 395
1461 -11.013744893364027 13.615387338697762 39.378565077223577 147 153 153 1.1397391417675642 7 444 9 561 12 538 17 637 18 401 19 424 15 392
1463 -11.066435689742494 13.502741403992225 28.848940690539031 39 37 38 2.0612047649326755 17 640 19 427 5 476 22 368 8 416
1464 -11.64633307706073 14.201722096726705 30.580085896561815 39 37 38 1.7620143070060716 12 476 20 473 19 428 5 477 22 369 14 389 8 417
1467 -1.8473584859077048 13.131624068321017 10.241874494488728 83 85 84 0.98230814661159394 20 578 19 440 5 495 22 503 11 522 14 518 1 491 8 521 2 466
1468 -2.6077775518853352 12.410499532246634 9.3988850552428787 48 50 49 0.72829318610398652 23 586 19 443 5 498 22 506 13 476
1469 -5.1485834271528192 12.872045184953167 9.4615964622185871 50 55 51 0.86949979344808803 7 480 18 438 19 449 17 666 17 599 5 505 22 514 11 462 22 417 14 435 14 525 1 408 20 512 8 529 2 385 15 586
1473 -11.464742825239579 13.539153502284467 42.637715942125908 207 216 215 1.5033684910595198 7 540 12 618 19 481 11 575 9 744 18 564 17 707
1474 -6.1891626068165975 19.893361386824573 22.389420507763361 158 160 157 0.48359371408943164 7 703 19 486
1477 1.5945244633904894 13.45934128658002 9.3921235865445194 152 120 71 0.90182008832613092 9 682 12 636 17 730 18 508 19 504 22 601 13 574 11 597 15 655
1482 -7.5476597765647826 13.875984287265528 27.590743896901632 64 70 68 1.9242793865640866 7 622 18 572 19 557
1483 -8.4691979569686637 15.462346171013481 31.207936303715666 64 70 68 1.6862773344231534 18 573 19 558 9 814
1489 -10.042822636844559 13.732838156718827 32.783830818666431 3 3 3 1.1281913303727245 3 587 17 874 19 616 12 692
1490 1.1607855182280633 13.567084762993959 10.229355934949911 177 144 99 0.44159883343485168 3 591 18 578 20 739 19 624 5 626 13 655 11 677 15 725
1498 -11.371458055292935 14.416362347386 32.999057940653685 223 229 230 0.60982042291981786 7 816 9 868 12 827 17 946 18 709 19 674 5 733 4 805 22 787
1499 -4.9507585131327874 45.458919057772533 26.75469889698903 40 26 15 1.9152435614024452 3 683 4 853 17 1003 19 680 7 878 9 878 12 887 18 765 18 721 12 836 5 776 22 827 13 804 14 787
1508 -11.695474165460224 8.1540852525914218 42.222201664217252 176 181 184 1.7597540436418753 4 839 7 853 9 911 12 869 17 985 18 751 20 859 23 903 19 712 5 769 22 818 13 792 11 832 14 811 1 781 8 783 2 758 15 860
1512 2.5406559925617183 13.627444851283016 10.130323685492757 115 80 35 0.4935924100985159 20 134 19 167 5 107 1 164
1513 0.35080484442302101 13.121978222087217 10.786796150774995 9 10 12 0.33839507916683831 20 357 19 262 5 228 23 244 13 180 14 279 11 292 1 270 8 284 2 253 15 410
1514 8.8800697098193613 14.989968376083823 38.30427345029959 85 91 123 1.8228407280916394 3 367 20 472 23 654 19 426 22 472 13 442
1519 -5.1318199053060098 13.171587464453717 10.466651356098003 69 75 73 0.89304012488569029 3 107 5 62 22 98
1520 -6.6228950885185132 12.988031059798921 9.6356104415877493 70 72 71 0.45351114703831763 19 91 20 212 5 95 14 162 11 115 1 219 8 183
1521 -1.7012469652819662 13.045856170914657 10.452194033596687 42 42 40 0.55402657975894876 12 209 20 202 5 163 9 213 17 136 7 180 11 83 8 174 2 100
1522 3.1367380230655346 13.886380957273868 9.4328654707421951 111 71 41 0.57230590466364839 7 216 9 241 5 189 4 193
1523 -0.27284480075297957 13.472586128544762 8.4802310687990268 121 86 54 0.71764282629039733 9 248 17 300 20 225 5 201 11 207 14 181 2 173 10 129
1525 -5.028692273972438 13.185946447167494 11.315427328917565 36 38 37 0.54512998391751544 7 254 20 276 5 222 8 280
1526 -2.6075410303954447 13.348461441769746 9.0643158726458211 187 151 99 0.43016295032586965 3 248 9 301 17 370 5 251 12 379 18 235 2 222
1527 0.70683118079810647 13.597994060624034 8.7192231654534673 125 89 58 0.70425878936048369 3 254 18 245 5 262 11 267 14 180 1 231 8 254 2 172
1528 -2.4886387280233984 13.050132550801363 10.013966409020462 86 86 84 0.26176164899657867 20 370 5 304 22 336 13 308 1 280 8 369 2 377
1531 2.9348877607468982 12.991938939315688 11.074032529593138 19 21 20 0.49976428881286716 9 481 20 432 5 366 18 282 14 344
1532 -4.976988359723939 13.025828192467793 9.4683541152111683 11 12 11 0.49090999221420356 7 400 9 420 17 509 5 379 12 430 22 338
1533 -1.4502263222438341 13.291601474592134 8.7777252610840026 169 133 85 0.73878560293760276 9 428 19 333 5 386 11 388
1534 -13.085118817989866 12.127437275670232 45.857386714023384 185 187 184 0.85967480595270307 4 411 7 434 9 456 12 470 17 540 18 323 20 469 23 463 5 406 22 364 13 346 11 415 14 385 1 362 8 404 2 429 15 459 10 462 21 546 16 414
1535 1.496402693819973 13.17690567082124 11.008098200247687 19 19 19 0.98970022551914028 17 570 18 425 5 415 9 483 20 492 13 463 14 411 11 513 1 390 8 512 2 366 15 473
1536 2.0449458081763314 13.368971587066531 10.818392676365868 12 10 11 0.40898892653645946 3 402 5 420 22 396 13 374 2 370
1537 -2.733990943301047 13.483845271723315 8.8294722977443385 205 171 125 0.28564559140668044 12 440 18 302 5 448
1538 -6.218241647226904 13.211332482802851 7.8949517620065661 217 183 135 0.63516613624918006 19 403 20 598 5 451 11 471 14 448 1 419 8 462 2 485 15 506 15 597 21 600 10 516 6 443 16 463 24 417
1540 -2.102274925268 13.038483591928971 10.334849643435529 16 17 16 0.71926032948438756 20 577 5 490 13 470
1541 -6.638193698870019 12.499069335122464 8.859435276494585 58 60 57 1.5849574085774794 19 451 20 591 5 507 11 531 14 528 1 499
1543 2.9969318024647622 13.476740325835461 11.305718410476226 68 70 69 0.5366878629646834 4 595 9 675 5 558 22 590
1544 -6.2708067046871445 13.123144276024863 10.045691235268587 56 60 59 1.466008846315441 12 628 5 561 7 558 22 592 13 568 1 571 8 519 2 560
1545 -5.6274322205838665 13.27784147749743 8.2856231387235475 148 111 56 0.85040970352425405 12 638 18 511 5 574 11 602 14 608 15 660 10 580
1546 -5.6274322205838665 13.27784147749743 8.2856231387235475 148 111 56 0.85040970352425405 12 639 18 512 5 575 11 603 14 609 15 661 10 581
1547 4.0941947384460917 13.588362806082527 9.970399788069253 135 99 51 0.5836966856917799 20 740 5 627 22 677 14 669 8 672
1548 -9.6714979751391184 11.681841248364686 42.351383269475498 44 45 49 1.7036312408389247 17 800 18 563 5 671
1549 -6.0043483646118494 8.9599485816501101 31.831551050758563 16 17 21 1.2852146878162694 17 988 5 727 9 912
1550 -11.468355755111908 15.080430792124206 27.592424922797399 62 66 65 1.4738285804932567 9 816 20 793 23 742 5 734 14 667 1 646 2 705 15 722
1552 8.9108183697518655 15.87435997914311 38.369963688051932 205 182 148 1.1087557337492158 3 673 4 847 7 866 9 916 12 879 17 994 18 757 5 774 11 840 14 818 1 790 8 790 2 768
1554 1.0624062037577375 13.54695025544317 8.8034790389566915 96 61 35 0.57434380745982683 3 199 4 200 5 199 9 247 17 295 18 153 19 184 7 225 12 263 22 180 11 204 14 179 2 171 10 205
1555 -2.9251819875163081 13.031829329786394 10.242660965499894 6 6 6 0.37628292467151597 3 235 17 352 18 224 9 348 4 250 5 238 23 254 19 225 22 277 13 236 2 208
1556 -0.33529156899130447 13.149902666023486 10.276033115702884 8 8 7 0.71546719126276848 3 409 9 496 23 506 7 467 5 430 3 336 12 423 17 505 18 291 22 334 14 423
1558 -18.975779098915893 13.251916533220774 45.394708562469667 133 139 135 1.4655705396031071 17 466 14 327 5 347 23 379 1 364 2 344 15 387
1561 -0.60555514531450227 2.929070582489286 1.3382017751034765 17 19 16 0.010969444012945723 19 137 22 28
1562 -1.4404465465327321 7.5576294890118483 6.7950480625023069 0 0 0 2.7600784781351217 5 152 23 237
1564 0.30021746682168593 13.176189763735433 10.91108918302932 33 35 34 0.55159588455591768 17 118 22 92 13 82 15 119
1565 -0.36222986388200012 13.253506965688931 10.843095987763975 34 35 35 0.30635641797605551 3 150 23 91 22 95
1566 -3.886578890999608 13.001019933664846 10.046284282313938 17 16 21 0.30383922156278015 9 221 23 190 22 113 13 92 14 157 11 98 1 154
1568 -5.4714269660460229 13.179133001094762 11.8073568392407 41 45 44 0.1171423594540707 20 182 22 150 13 50
1569 -2.1267989134343024 13.15164232448361 10.166941787305362 90 96 94 0.32540987317660658 5 91 19 158 23 197 22 168
1571 -2.3748783687454442 13.38884148959478 9.4761022106542132 181 145 95 0.67387268548421331 17 280 22 175 1 166 5 108 19 108 15 163
1572 -1.8934557521095463 13.530039569878337 8.1295172187934206 118 85 50 0.89353628368832039 12 269 22 188 20 235 8 200 2 231
1573 1.796397179926885 12.991521663619766 10.591012683753 83 86 88 0.77047215586818574 7 269 23 248 22 219 13 181
1574 -5.5641721413284975 13.234292907394911 8.3845847262618314 167 133 81 0.51741142395145601 4 194 7 349 22 237 13 201 1 226 1 287 8 248 2 223
1575 3.3646079529963915 13.300110434081192 11.342251658569564 60 62 61 0.4307750537390323 3 275 19 261 22 267 13 232 14 278
1576 -6.3424790235056063 12.896042860808832 9.254357850484265 58 60 59 0.3617358449298646 9 419 22 339 18 364 13 313 11 375
1577 -4.8602501398965403 12.928014525882416 9.779540637809669 18 18 18 0.13356372879786091 19 383 20 504 22 404
1578 -4.0910640220310199 13.130017472342876 9.6845647702150952 7 5 6 0.34514731271531862 9 514 22 420 20 514 11 465 2 386 15 497
1579 4.1774555254137891 13.285151790824465 11.600368495172033 22 24 23 0.78733951699320492 4 514 5 481 20 569 22 494 19 430 13 459 14 593 8 509
1581 0.52349321364193502 13.0480889819443 10.724534436299873 15 17 16 0.77405768756748827 19 434 20 572 22 498 14 507
1582 1.1803266325807424 6.8899424291956324 17.426689446295555 72 74 73 0.48716932829677106 4 749 22 576
1583 -6.0768715551780446 13.258111527271895 8.1527746268084353 148 111 56 0.40058152799888747 19 566 20 744 22 681 11 604 15 662
1584 -6.0768715551780446 13.258111527271895 8.1527746268084353 148 111 56 0.40058152799888747 19 567 20 745 22 682 11 605 15 663
1585 -12.66785603034416 10.35202313444808 45.460534617997048 122 123 118 1.27418707852199 4 659 7 684 12 745 17 795 19 603 20 724 22 656 13 636 17 860 14 656 1 628 2 626 15 767
1586 2.0380691550443526 13.458497434373069 11.011258705869945 31 32 36 0.48847450296165373 20 94 13 88 2 98
1587 -4.907387790235691 13.19168083833854 11.341754331369156 39 43 42 0.16947010326704373 9 201 13 126 7 167 12 192 18 46 2 151
1588 1.7174732654147007 13.264690929542342 11.001186559451256 66 69 68 0.20548544932068327 20 280 22 158 13 130 14 149 1 146 15 218
1589 0.30206503951914426 13.058925733149694 10.415754294440234 107 111 112 0.24425865006738659 20 205 22 164 13 135 11 243 14 229
1591 1.0534503606838836 13.447254311291148 8.6684318716538638 104 68 42 0.7303620399718167 20 223 13 149 1 106 4 203
1593 3.1732903679646354 13.250716311043599 11.38521797395707 12 14 13 0.41913043296326769 3 220 5 224 13 177 14 215
1594 -0.79693855846043182 12.985868664151493 10.173342390548997 54 58 59 0.3891557814345723 7 193 9 223 22 227 13 190 11 171
1595 -1.1458901118233007 13.170419163277064 9.3497838133021354 191 157 109 0.49072405920868983 4 264 13 198 15 293
1596 1.8413532041615921 14.167734212193569 9.3385356216519551 97 65 43 1.3571120189218766 20 312 13 207 14 247 1 229 2 226 15 299
1598 -9.4874838028761452 13.673020862492683 19.821516065519617 95 101 99 0.44394920675866928 4 352 23 395 13 224 19 369 5 360 14 269 20 340 1 253 8 273 11 355 2 242 15 254
1603 -1.878744435818303 12.670618024255857 9.7303813805831645 56 58 57 0.59339702634437907 4 375 13 305 7 395 12 495
1604 -5.8385914045730996 9.7186244853628576 39.341216714825876 31 31 33 0.42865070564677427 7 433 17 538 18 322 13 345 9 453 11 495
1606 1.818768174492668 13.209856881008641 10.641589067725263 7 9 8 0.48307744479885517 17 581 18 348 20 497 13 376 14 417
1610 0.25787921375366396 8.8100372101731441 11.011719116616144 46 48 45 1.8365082709128195 7 378 13 557
1611 -5.6109751171129485 9.7412515831552628 36.55249905223058 183 185 187 0.81270746896469603 7 686 13 638 9 739 17 798 18 561
1614 -4.9395263902030386 13.173275052177571 11.24553225507332 124 129 124 0.26687274599077432 3 133 7 55 9 78 12 50 4 57 13 67 20 77 22 74 1 55 8 70 2 76 15 108
1615 -4.9396980481745016 13.173793939699667 11.245861044069754 129 134 135 0.25277990640211995 3 134 7 56 9 79 12 51 4 58 13 68 20 78 23 73 22 75 1 56 8 71 2 77 15 109
1616 -5.8092588476639069 12.86592027205128 9.3874738142222292 36 41 38 1.0613262516444044 19 163 20 130 22 172 13 193 17 272 4 258 9 230 23 261 5 177 11 181 14 165 8 131 2 218 15 292
1617 4.0226169455692071 13.324011705773762 11.342140743366567 84 86 86 1.1938139212387298 19 488 20 659 5 557 13 462 3 459 23 577 22 496 14 595 1 565 8 671
1618 3.4723805095199713 13.196771710380499 11.031086222526206 64 66 65 0.21768768231564875 23 88 13 83 22 157 15 122
1619 -0.45282017835850874 13.186689397550579 11.11667750723093 109 109 109 0.30846785217708222 3 78 12 60 11 61 1 62 2 83
1620 -0.45282017835850874 13.186689397550579 11.11667750723093 109 109 109 0.30846785217708222 3 79 12 61 11 62 1 63 2 84
1622 1.84589385695148 13.168152880022181 10.804272394078302 118 119 121 0.45630323037278453 20 91 11 79 1 78 2 96
1623 -2.1138944967122466 13.056066981047369 10.076808445231958 96 98 97 0.059782106278742191 20 210 11 111 14 78
1624 -7.1206316431616852 12.921252891460547 9.5165885539394317 66 70 69 0.4965098002831741 19 95 11 116 2 118
1626 0.61083953109188072 13.707558297283555 8.8406655026871714 107 73 39 0.27672862388973613 17 299 11 126 7 136
1627 -2.1320093558269146 13.203219888230887 8.1972806753948841 146 112 66 0.22501583178315737 5 200 19 124 11 127 15 167
1628 -2.0388498555015326 13.095779256038981 8.0815531771902123 175 141 96 0.37683988153710601 5 131 19 186 11 128 14 103
1629 -0.41866031016709643 12.928848207751891 10.498915678635763 6 6 6 0.27595878343291941 20 285 11 161 14 220
1630 1.3837128679488795 12.904489195636915 10.454378267852844 120 121 123 0.65003388336122114 22 100 11 164 23 185 14 154
1632 -3.0585513429313136 12.928431645729978 9.7778355142710378 71 73 72 0.21193574325948741 20 213 11 180 1 221 8 184 15 158
1633 2.1305904240167957 13.555689547177815 9.7530916214920484 150 117 74 0.90822488100931331 3 194 18 190 11 185 1 223 2 220 10 385 21 457
1634 0.11738994773353142 13.474107644819965 9.2995023207226986 160 126 81 0.29466768851854441 4 268 17 287 11 186 12 152
1635 -4.5091665629435234 13.002180917989611 8.4839200366389385 165 131 85 1.1197116074305917 19 117 11 191 14 175 15 237
1636 3.1921407027140072 13.667735202734374 9.2807086257796847 107 70 44 0.41184454585715846 20 219 11 193 7 215
1637 -4.2140406447416661 13.602874040074839 8.733252292045405 139 99 50 0.64897800624928959 23 206 11 196 1 170
1638 -6.3214175139848159 13.147420276156481 8.1954389215226175 203 169 119 0.42390663424697766 19 241 11 197 14 177 13 202 19 287 15 239
1640 -6.3613599537296786 13.287728744504021 8.2314951957530536 149 113 61 0.52008908486464456 19 180 11 199 5 258 22 240 23 273 14 178 8 251
1641 -2.319086362814327 13.021306614754197 8.2821022919211522 157 123 77 0.25608138539685049 5 118 11 201 19 181
1642 -1.3283515970751141 13.478636076482221 8.2574648965131505 110 74 42 0.37543842401309524 7 230 18 158 11 210
1643 -1.2972417815670805 13.439869377771952 8.1806787958132343 117 83 55 0.8781165069862702 5 205 9 164 13 155 17 302 11 211 3 256 8 197 2 230 10 135 16 214
1644 -5.023080963193431 13.227992192788996 7.2781253413958131 117 82 54 0.66361981562670413 5 208 19 205 11 214 14 254 2 184 6 253
1645 -2.1851100460510726 12.856911214613895 10.134283561267338 17 19 18 0.46599493451299401 20 363 11 240 14 282 8 232 2 260
1646 -1.5953771535049084 13.046494878262729 10.141824790246224 85 85 85 0.30434110092487204 18 228 11 246 3 337 7 279 12 306 8 366
1647 -44.836629099002536 4.6482324735541187 123.32615841990395 57 50 79 0.95247146753734324 3 257 4 280 7 304 9 308 13 212 18 203 19 253 11 274 22 192 23 216 11 135 13 159 14 187 14 256 1 234 8 202
1648 2.3497938256880988 13.288320686979041 11.307548590001215 18 18 18 0.43892447628459574 3 276 20 355 11 291 8 282
1649 -6.7159584648467803 12.908378330597087 9.0941621859296617 11 11 11 0.70309778524788669 22 285 11 304 13 197
1650 -4.1697435766707809 13.289396874446945 8.8443418978521517 175 141 95 0.260584551969125 5 316 17 372 19 281 11 306
1651 -1.5405215567999793 13.145420898097463 8.6639157623508307 165 127 82 0.89143381918559794 5 318 19 284 11 308 1 335 2 319
1652 -1.562325805749095 13.081017269521652 10.481683204538562 10 12 11 0.41547264102261711 20 496 11 363 14 415 1 322 2 303 15 411
1653 -4.3542221522811593 12.94329532242374 9.9017272234751257 15 17 16 0.50198807160067715 13 238 11 369 14 352 1 327 2 308 15 417
1654 -4.3599575010281928 12.969523214089605 9.9277104178743141 15 17 16 0.44118511427655893 13 239 11 370 14 288 2 309
1655 -4.4949838806082365 12.876500548401628 8.4776374627212245 204 170 125 0.30476930905778515 13 316 11 384 14 362
1656 -6.590077546378124 13.020758075413296 7.5375448283201676 191 157 112 0.64215774540034687 13 319 19 336 11 392 15 430
1657 -6.189229976146394 9.340438633144899 37.152064605763627 41 44 53 0.59611175929474747 9 556 17 635 11 414 18 399 1 361 8 403 2 342
1658 -12.607890377964527 12.826743998921811 43.702981986436527 176 180 179 0.81227196866963058 4 415 23 464 11 416 8 406 10 468 21 551 6 409 16 418 24 321
1659 -12.607890377964527 12.826743998921811 43.702981986436527 176 180 179 0.81227196866963058 4 416 23 465 11 417 8 407 10 469 21 552 6 410 16 419 24 322
1662 -7.2689438303812359 12.939683959876929 9.4269687184899578 22 23 25 0.41662699911877066 13 390 22 412 23 513 11 457 14 356 1 407 8 452 2 384 15 489
1663 -2.6667933680208828 12.345643983156082 9.1514954186775999 7 5 6 1.8484435745457322 5 439 17 598 11 459 14 434
1664 -11.200965996515956 12.928457806059905 42.793540248132729 177 181 180 0.43171639102689885 7 537 23 552 11 501 8 494
1667 0.81192788433610363 13.232879506842762 10.714439515951275 73 77 76 0.88428334646932027 20 575 11 519 9 599 17 657 18 430 7 553 12 564 14 511 1 486 8 516 2 464 15 574
1668 -3.1235771434616213 12.439196206903611 9.3870936284112023 62 64 63 0.87628357568017401 19 496 11 525 14 520
1669 0.43949041529499577 13.567934092888532 9.7059147431876802 127 87 43 0.47231439183295582 3 478 18 445 11 533 7 566 1 502 15 591
1670 -2.241291112999289 13.128487520653376 8.4236428065295339 169 135 89 0.49450700974880801 5 517 11 536 14 541
1671 -24.332335664938991 9.8667288485604043 119.44565869399474 73 68 104 0.40311463685976739 3 429 4 560 5 531 7 595 9 636 12 602 13 518 17 689 18 466 19 468 20 624 22 549 23 622 11 559 14 565 1 531 8 563 2 513 15 623
1672 -27.034313343091917 11.668917067536031 123.21965910374001 138 134 164 0.33429972799867125 3 432 4 561 5 605 7 596 9 637 12 674 13 519 17 784 18 552 19 542 20 715 22 550 23 624 11 563 14 568 1 534 8 566 2 514 15 700
1673 -35.718463568264958 -0.4401368513822046 124.38749573906235 120 103 96 0.8684153304141744 3 493 4 641 5 591 7 668 9 718 12 660 13 610 17 772 18 539 19 527 20 703 22 636 23 710 11 630 14 635 1 606 8 626 2 604 15 687
1674 -38.351504203274764 5.0833593095127974 119.43743062627193 191 187 222 0.56079550778776055 3 561 4 648 5 661 12 739 13 616 17 853 19 595 20 768 22 641 23 720 11 636 13 696 14 638 1 614 8 633 2 610 15 693
1675 -44.774530753517347 10.697759364000934 118.58936604354645 145 142 168 0.60076769042794032 3 501 4 564 5 606 7 680 9 731 12 673 13 624 17 786 18 553 19 543 20 716 22 553 23 625 11 646 14 570 1 623 8 641 2 517 15 701
1676 -13.293311788525966 10.21452928403272 48.339732090412781 116 118 115 0.72107313306927412 12 680 13 632 20 720 11 649 14 654 8 644 2 622
1677 -11.947901482895809 10.678314143941478 50.267554184723842 43 43 55 1.1487609129786303 9 736 12 744 17 793 18 632 19 546 20 721 23 730 11 650 17 859 20 780 22 722 4 737 5 613 19 602 1 627 8 645 2 623 2 683 15 705
1678 -12.015247970521143 12.666250344406762 43.793737616067595 216 218 217 0.57219146661779963 4 664 7 687 11 656 1 630 8 648 23 640 2 532
1679 -11.918008715295654 12.594382102985367 43.437149192902972 216 218 217 0.22141092115583239 7 688 11 657 4 665 8 649
1680 3.0889530546950255 16.118893775406054 49.243133177268817 192 193 195 0.87613609003991788 4 669 5 675 7 692 12 685 13 642 20 732 22 574 11 665 23 647 14 663 1 639 8 661 2 638 15 714
1681 1.8052543550948315 15.104133159886716 43.274904459596101 54 55 57 1.3763726221913022 12 687 13 646 11 668 14 666 8 665
1682 -8.8809869345029018 14.512949459360591 29.567734585354582 196 207 209 1.32810590202318 23 660 11 673 15 720
1683 2.6356432144744173 13.581814885648164 9.6069962771113673 142 105 61 0.70248516545639905 3 592 11 678 14 670 15 726
1684 -4.6679774774211751 13.535698511951708 8.3650689628633454 200 167 122 0.9934182920172695 23 747 11 681 15 729
1685 -5.2338120756118061 48.514542994931141 27.638708762040068 39 25 14 1.5608215804552401 4 620 11 695 14 686 8 679 2 583 15 735
1686 -6.3063647041157145 54.904826483689142 29.838236627923674 31 21 11 1.9396160030830838 4 701 7 729 12 725 13 680 18 604 22 702 11 699 14 620 1 671 20 760 2 587 15 743
1688 -40.600902034667847 9.9375071962343338 114.70479506031798 38 37 55 0.51038097844861452 3 568 4 733 5 664 7 753 9 795 12 740 13 703 17 856 18 628 19 599 20 774 22 716 23 798 11 719 14 713 1 684 8 703 2 676 15 760
1689 -11.634784429768693 11.363811456321558 47.335366447617695 162 164 161 0.58434828355412827 5 669 9 798 18 633 19 668 20 781 22 724 23 803 11 728 7 757 17 861 12 746 1 690 8 711 2 685 15 768 10 663 21 729 6 623 16 592 24 495
1690 -13.470204231817728 11.536950448646744 46.066419949160647 203 205 204 0.39029523005100203 4 740 9 800 13 706 20 782 22 725 23 804 11 729 14 723 1 691 8 712 2 688 15 769
1692 -23.320344187502336 14.004901694471831 52.476218187432508 33 51 39 1.9046707229320929 4 663 5 616 7 609 9 742 13 534 19 549 20 727 22 658 23 733 11 734 17 703 18 479 14 727 1 697 2 694
1693 -14.281657960643855 13.449989448537432 46.2118764898728 222 224 223 1.0032728739111629 4 748 7 760 17 867 23 810 11 736 5 672 22 729 14 730 1 699 8 717 15 776
1694 -12.364764467418707 17.281765693989488 45.745095919567127 160 159 156 3.6104217574282402 7 767 11 745
1695 -38.987212811095091 3.1725969166147037 113.59078724968535 12 7 13 0.6881610023708854 3 621 4 786 5 754 7 798 9 847 12 801 13 747 17 919 18 689 19 654 20 818 22 771 23 854 11 771 14 766 1 765 8 768 2 725 15 806
1696 -34.001467298799867 3.2343665267470101 117.00645767302002 8 6 9 0.70872911564561214 3 658 4 781 5 708 7 792 9 842 12 802 13 744 17 920 18 735 19 651 20 813 22 767 23 851 11 772 14 763 1 729 8 767 2 722 15 807 15 845
1699 -12.235226890347098 17.453171841350951 41.581314221498005 3 3 3 1.6164465741850702 7 868 11 793 15 827
1700 -41.745420485773451 -6.4450348356919269 132.7492107541581 113 79 70 0.82429857807638551 3 657 4 822 5 749 7 838 9 894 12 848 13 777 17 965 18 732 19 694 20 839 22 800 23 887 11 813 14 796 1 763 8 765 2 740 15 843
1701 -29.041868955926621 4.2358439358418778 122.12974206496034 12 13 18 0.37471837648856771 3 659 4 824 5 755 7 840 9 896 12 853 13 783 17 970 18 739 19 699 20 846 22 808 23 889 11 816 14 800 1 768 8 770 2 747 15 846
1702 -22.455697953446933 4.5319326925685184 121.05049628494085 29 29 36 0.45726954538931208 3 660 4 825 5 756 7 841 9 897 12 854 13 779 17 971 18 736 19 700 20 847 22 804 23 890 11 817 14 801 1 769 8 771 2 745 15 847
1703 -16.982246578904029 4.9353356935583355 129.02880651427563 16 16 24 0.71501474971976808 3 661 4 826 5 757 7 842 9 898 12 855 13 780 17 972 18 737 19 701 20 844 22 805 23 891 11 818 14 798 1 766 8 769 2 746 15 848
1704 -10.439193754271107 4.9747516650149519 122.83198709797418 33 31 42 0.75101179268031637 3 622 4 827 5 709 7 793 9 899 12 805 13 748 17 973 18 690 19 655 20 814 22 772 23 855 11 819 14 767 1 730 8 744 2 718 15 808
1705 -7.5764813227301007 7.9349141271260484 122.03087286419608 118 117 151 0.69417883218285326 3 662 4 829 5 759 7 844 9 902 12 857 13 784 17 976 18 740 19 703 20 848 22 809 23 894 11 822 14 802 1 770 8 773 2 748 15 850
1706 -30.92245536538621 7.2789344422354132 115.60884865936718 149 146 183 0.41991881049909696 3 663 4 832 5 762 7 847 9 905 12 858 13 788 17 978 18 744 19 704 20 852 22 813 23 896 11 825 14 803 1 775 8 776 2 752 15 853
1707 -26.129160299531918 7.8830974121241928 121.48807352117026 146 143 174 0.58470493788792788 3 664 4 833 5 763 7 848 9 906 12 859 17 979 18 745 19 708 20 853 22 814 23 897 11 826 13 753 1 776 8 777 2 753 15 854
1708 -25.584864924066768 7.743722215150088 119.09506115737409 146 143 174 0.35746485558581997 3 665 4 834 5 764 12 860 17 980 19 709 22 815 11 827 8 778
1709 0.50928974718190212 15.721777717522555 51.788499489931297 214 219 222 1.9510652443715994 17 989 20 865 11 838
1711 -7.1689946599052101 53.994796652101556 30.486973803432782 196 197 191 1.0618762826573716 4 812 5 743 7 826 9 882 12 838 13 771 17 953 18 723 19 686 22 794 23 878 11 846 3 650 14 790
1712 -12.358995508245552 56.303614859994092 25.142188139979933 166 162 153 1.5526890414887522 5 784 7 884 11 852
1713 2.3651087547446195 13.262375998841232 10.594068758433206 42 43 42 0.30721156843651493 3 233 17 357 9 289 12 224 7 278 18 179 20 294 4 254 23 258 19 227 5 171 22 226 13 189 11 169 7 277 18 178 20 293 4 253 12 223 17 356 23 257 19 226 5 170 13 188 14 232 14 233 1 216 1 217 8 233 8 234 2 209 15 284 15 285
1714 -4.1643037346524414 13.423563078283644 8.516028537053705 177 146 111 0.85756183995598789 9 243 20 221 7 409 9 365 18 241 20 383 23 428 12 384 19 242 18 195 5 255 5 321 13 203 13 402 17 613 11 198 11 310 11 470 12 326 14 298 14 447 8 311
1715 -13.754190211060811 10.770459426894798 34.650005220580681 131 133 132 0.90064508552228906 4 347 17 468 23 380 8 408
1717 -6.4761768901465953 13.361391031843892 14.506811515457857 93 97 96 0.33015740059292342 9 192 14 21 7 21 12 15 1 135 11 151 8 26
1718 -4.4971232000488399 12.928131292827919 9.9130617368163794 60 62 61 0.25563598008851146 11 101 19 81 14 74
1719 -3.1977494438321084 12.885855719225681 9.8751036175706197 85 87 86 0.17304799907807067 11 110 20 119 14 77
1720 -4.122450827764971 13.261219586524501 10.062323582790585 86 88 87 0.15883212710089303 5 96 13 95 14 79
1721 -3.7527518657170971 13.019316811005474 9.8537387835731671 88 90 89 0.092305878508384828 11 113 20 211 14 81 1 158 8 182
1722 -4.3486129223140706 12.867887737746008 9.6511956465951467 107 109 108 0.22124794150849181 13 96 14 82 22 117 1 95 8 124 2 117 15 156
1723 -5.5169892625941284 13.193527273469645 8.4131770817533127 200 164 118 0.087999590155251439 5 115 14 97
1725 -1.9298018219841679 13.034922242056224 10.065608458414886 85 87 84 0.34599678747052692 11 175 20 297 14 160 1 156 8 179 15 289
1727 -5.5482979332317166 13.287035837564932 8.4286848809076851 155 118 69 1.0656605171217108 5 190 9 240 14 176 8 191
1728 -2.131688152675725 13.57355468024249 8.1689700449183729 120 81 46 0.84118311564742543 18 159 20 234 14 184
1729 3.4811761121569247 13.238072067771734 11.104188615831577 61 63 61 0.23450240064353775 23 326 14 216 15 333
1730 -4.8221840965659908 12.75169259069585 9.3625819846787373 71 71 71 0.30008530690930302 5 308 22 282 14 236 13 243
1731 -6.5112530532920507 12.908843640539708 9.2350033259740734 90 92 91 0.49778445110370928 5 310 11 257 20 304 14 238 13 312 22 283 1 283 8 301 2 271 15 347
1733 3.8587686381516093 13.397716082373263 11.65154079112297 18 18 18 0.36935048190788694 7 452 14 408 4 438 18 336 1 388 2 364
1734 -4.5884098121243406 12.857197789769007 9.7991451880955935 19 21 20 0.19588610331089096 19 322 14 422 1 402
1735 1.1691434650114618 13.620123175263675 9.9024831955015475 122 80 36 0.5688733858070657 12 509 14 440 10 447
1736 -45.619293750606111 19.87615560740046 119.66105551322742 132 129 156 0.62372821192517169 3 435 4 491 5 536 7 602 9 644 11 568 12 609 13 526 17 696 18 472 19 474 20 631 22 561 23 631 14 472 1 541 8 572 2 522 15 631
1737 0.3297996377727736 13.370599559029504 10.749351306922311 71 73 72 0.58408180385704567 11 520 13 471 19 494 14 515 5 560 1 489 8 598 2 559 15 646
1739 -3.7858990118565292 13.538640413813045 8.6582810062118725 200 166 120 0.9053038356743196 7 498 18 375 14 540 9 527 1 505 2 484 15 596
1740 -46.151507843394256 17.757133023287984 121.77392946962009 134 131 158 0.62500858637440149 3 433 4 567 5 534 7 601 9 642 11 566 12 608 13 524 17 694 18 471 19 472 20 628 22 557 23 630 14 573 1 538 8 569 2 520 15 628
1741 -8.087029130327041 6.6992599853843258 131.05277489949665 164 160 190 0.5269929875214675 3 564 4 642 5 595 7 669 9 719 11 634 12 665 13 614 17 773 18 540 19 532 20 704 22 637 23 711 14 636 1 607 8 627 2 605 15 691
1742 -8.087029130327041 6.6992599853843258 131.05277489949665 164 160 190 0.5269929875214675 3 565 4 643 5 596 7 670 9 720 11 635 12 666 13 615 17 774 18 541 19 533 20 705 22 638 23 712 14 637 1 608 8 628 2 606 15 692
1743 -18.232633644839478 11.740502041363333 39.968750616029475 126 128 125 1.9000827825554225 4 667 5 617 7 690 13 641 19 550 20 730 22 661 23 735 14 659 1 703 8 720
1745 -1.6882433586837455 12.22300416270191 54.303914314241617 205 190 159 0.90761374714952114 4 840 5 770 7 856 13 795 19 714 20 861 22 820 23 905 14 812 2 760
1746 -3.3177463410308046 13.030584067087963 9.859508018145382 106 108 107 0.3648986645779812 9 143 19 96 4 108 5 97 22 118 13 143 14 83 7 117 20 301 11 179
1747 2.1011827007536019 13.565735554945693 9.0223694217611961 86 53 32 1.2572110743185694 18 240 20 445 4 391 13 251 14 297 4 196 7 219 9 244 23 272 12 259 18 92 5 193 8 307 2 320
1748 2.5409884553316529 13.175169735838391 10.936160430547119 75 76 76 0.40997904679700631 3 462 4 518 23 668 5 559 19 492 22 591 13 566 14 508 20 573 11 515 1 568 8 514 2 461 15 645
1749 1.4344904978997748 13.394710552219731 10.966396441885648 80 83 84 0.99288657925672774 9 597 23 581 19 436 5 487 13 466 14 509 3 464 20 663 11 518 1 484 8 515 2 556 15 573
1750 -9.5045029634290827 13.702675105389876 19.874141507970364 93 97 96 0.40501067408199509 20 339 14 268 1 252 13 223 22 323 15 253 6 338 21 386 16 303 24 249
1751 -6.77039829982012 13.097934152003283 10.456872222604417 193 199 197 0.16729059407274174 13 80 1 74 8 95 2 94
1752 -4.5085359448554438 12.948927532488714 9.933556013872856 48 52 51 0.25738017714154726 13 140 22 167 23 193 1 89 2 163
1753 -3.6888487528862437 13.374749152094637 9.2962080374546243 186 154 106 0.7536763894446098 5 110 19 111 1 101
1754 0.11093773004756488 13.653935007300309 8.6220397328291334 106 73 40 0.87337185218918445 14 104 19 126 1 107 11 208 8 140
1755 -7.2186479735263003 12.938794521069385 9.539632833063914 73 79 77 0.31090475550924085 11 114 14 80 19 93 22 119 1 159 2 165
1756 -5.4328230509249442 12.873135055887209 9.458017718441635 90 91 90 0.14632370729411903 20 127 1 161 8 127
1757 -0.55734430642672195 13.539318688132106 9.2134197685577739 164 130 82 1.0026657357402371 23 130 1 168
1758 -0.58218783941981522 13.478495305101459 8.407024420464575 115 79 43 0.68641506918945516 18 157 1 172 8 194 2 175
1759 -0.7335223374488633 13.386280773333695 8.2525888269567744 125 93 55 0.17696347134710683 19 194 1 174 5 204 14 182
1762 -0.29624389541533058 13.431716377527046 10.794025255154981 38 39 42 0.4671174225262627 17 255 20 290 1 213
1767 4.0122210943505419 13.370774743659503 11.588824850803334 22 23 25 0.96954727738969326 11 289 13 176 14 277 19 258 1 266 8 281 2 250
1770 -3.2934929378471924 18.852071547455711 28.769953377246594 41 37 34 3.1362626589820897 9 330 1 313
1772 -7.4450288876379176 13.10157291742056 9.7135710822329084 61 67 65 0.35782551747633384 13 241 1 330 15 419
1773 2.4434764090086976 14.544605932957095 9.0773513670026666 69 42 24 0.46032500734246451 18 200 1 336
1774 3.6919142795161082 12.694877259820425 52.92233315776528 96 85 57 1.1609390093015273 13 344 18 321 20 466 22 362 23 461 1 359 2 340 15 453
1775 -2.9991449873070732 15.898438342449648 28.303929379365773 75 70 64 2.7753560353675546 9 463 1 372
